ply
format ascii 1.0
element vertex 1435
property float x
property float y
property float z
element face 0
property list uchar int vertex_index
end_header
0.0191133 -0.00347573 0.0242831 
0.040119 -0.00333077 0.00461565 
0.0274699 -0.00308671 0.00136832 
0.0191707 -0.00352158 0.0264245 
0.0191707 -0.00352158 0.0264245 
0.0183631 -0.0032305 0.0136141 
0.00944684 -0.0029424 0.00568156 
0.0251567 -0.00311876 0.00457607 
0.019275 -0.00358896 0.0296107 
0.0215371 -0.00305355 0.0037413 
0.0188521 -0.00351457 0.0264373 
0.194477 -0.00588514 0.0140598 
0.018089 -0.00323794 0.0142067 
0.018001 -0.00324879 0.0147655 
0.0180927 -0.00323375 0.0140248 
0.0179433 -0.00325368 0.0150433 
0.0178591 -0.0032651 0.0156263 
0.0203894 -0.00309661 0.0064071 
0.00763427 -0.00312074 0.0155541 
0.0195621 -0.00368669 0.0344375 
0.0184099 -0.00318667 0.011939 
0.0178961 -0.00324273 0.0146052 
0.0178961 -0.00324273 0.0146052 
0.0207753 -0.00297013 0.000248937 
0.0195093 -0.00313724 0.00881447 
0.0197151 -0.00317215 0.00999768 
0.0185246 -0.00356466 0.0292459 
0.0210092 -0.00297597 0.000391452 
0.00687446 -0.0029666 0.00854338 
0.00847584 -0.00300947 0.00947064 
0.0204436 -0.00308593 0.00593965 
0.0200391 -0.00310511 0.00706062 
0.0192041 -0.00368613 0.034562 
0.0202377 -0.00309579 0.00651985 
0.0197697 -0.003773 0.038331 
0.0236629 -0.00305637 0.00239621 
0.0192626 -0.00314127 0.00920441 
0.0182241 -0.0035425 0.0284891 
0.0182241 -0.0035425 0.0284891 
0.0191562 -0.00314692 0.00953149 
0.0183573 -0.00357614 0.0299989 
0.0191972 -0.00314436 0.00939507 
0.0139153 -0.00303359 0.00751168 
0.0215138 -0.00306699 0.004428 
0.019211 -0.00314039 0.00921758 
0.017298 -0.00327356 0.0165551 
0.017298 -0.00327356 0.0165551 
0.0190248 -0.00314705 0.00965369 
0.0211716 -0.00308105 0.00532686 
0.0171226 -0.00333913 0.0197377 
0.0108083 -0.00292224 0.00396622 
0.0180656 -0.00356632 0.0298261 
0.0173334 -0.00343865 0.0242758 
0.0172055 -0.00328496 0.0171692 
0.018922 -0.00315121 0.00991854 
0.0229399 -0.00300446 0.00053246 
0.0117272 -0.00300997 0.0072886 
0.019578 -0.00311617 0.00791112 
0.0185373 -0.003271 0.0149881 
0.0170452 -0.00340834 0.0230581 
0.0188416 -0.00315438 0.0101257 
0.0188453 -0.00370787 0.036083 
0.0195642 -0.00311611 0.00792519 
0.019571 -0.00311533 0.00788674 
0.0193916 -0.0037833 0.0393303 
0.0170117 -0.00339193 0.022327 
0.0144665 -0.00326345 0.0178677 
0.00387875 -0.00306507 0.0152063 
0.0189595 -0.00314461 0.00961639 
0.0189595 -0.00314461 0.00961639 
0.0175059 -0.00324101 0.0149832 
0.0188814 -0.00314807 0.00982798 
0.0188814 -0.00314807 0.00982798 
0.0183511 -0.00318221 0.0117366 
0.0169462 -0.00334642 0.0202649 
0.0169438 -0.00331604 0.0188488 
0.016906 -0.00335069 0.0204979 
0.0169244 -0.00331926 0.0190188 
0.0199796 -0.00344746 0.023148 
0.0282563 -0.00338639 0.0152381 
0.0169028 -0.0033258 0.019345 
0.0169216 -0.00331452 0.018805 
0.0168599 -0.0033587 0.0209168 
0.0168798 -0.00333395 0.0197454 
0.016885 -0.00333058 0.0195839 
0.0179038 -0.0036717 0.035074 
0.0563769 -0.00382449 0.0170314 
0.0603562 -0.00373048 0.00992397 
0.0192529 -0.00379484 0.0400919 
0.0192529 -0.00379484 0.0400919 
0.0192529 -0.00379484 0.0400919 
0.0165162 -0.00328825 0.017023 
0.0168981 -0.00342894 0.0242202 
0.0212576 -0.00404172 0.0506627 
0.0171727 -0.00327029 0.0166007 
0.016779 -0.00339427 0.0226975 
0.0170507 -0.00327946 0.0171363 
0.0183034 -0.00317245 0.0113658 
0.0169033 -0.00347292 0.0263478 
0.0181383 -0.00318267 0.0119495 
0.0225211 -0.00307325 0.00395871 
0.0166975 -0.00334283 0.0203465 
0.0166975 -0.00334283 0.0203465 
0.0183858 -0.00316555 0.011002 
0.0197773 -0.0035201 0.0268019 
0.0179224 -0.00319796 0.0127977 
0.0187308 -0.00314524 0.0098478 
0.0181095 -0.00318336 0.0120027 
0.0195573 -0.00386383 0.043343 
0.0177222 -0.00321547 0.0137456 
0.0169321 -0.0035024 0.0277659 
0.0164858 -0.00344533 0.0253628 
0.0164784 -0.00344862 0.0255311 
0.0165394 -0.00342933 0.0245828 
0.0164971 -0.00343687 0.0249694 
0.0165449 -0.00338327 0.0224076 
0.016494 -0.00341462 0.0239287 
0.0181224 -0.00317349 0.0115686 
0.0180707 -0.00317723 0.0117753 
0.0167391 -0.00334207 0.0202789 
0.0178013 -0.0031974 0.0128867 
0.0165059 -0.00341513 0.023952 
0.0165059 -0.00341513 0.023952 
0.0165284 -0.00341276 0.0238259 
0.0177021 -0.00320422 0.0132683 
0.01653 -0.00338062 0.0223037 
0.01653 -0.00338062 0.0223037 
0.0165369 -0.00339838 0.0231421 
0.0175298 -0.00322169 0.0141952 
0.0175629 -0.00364277 0.0341322 
0.0167511 -0.00326963 0.0169361 
0.0167396 -0.00327551 0.0172203 
0.0166948 -0.0032748 0.0172244 
0.0177934 -0.00353581 0.0278633 
0.0164675 -0.00340865 0.0237088 
0.0175785 -0.00364917 0.0344809 
0.0169177 -0.00355341 0.0303232 
0.0169036 -0.00351165 0.0282625 
0.0168869 -0.00354726 0.0300493 
0.00727763 -0.00313514 0.0165581 
0.00812583 -0.00308979 0.0136772 
0.0182727 -0.00378117 0.0404027 
0.0206247 -0.00403953 0.0513854 
0.0204201 -0.00402273 0.0507574 
0.0184673 -0.00313435 0.00950775 
0.0163955 -0.00345451 0.0259705 
0.0177182 -0.00319191 0.012726 
0.0177182 -0.00319191 0.012726 
0.0178544 -0.00318081 0.012122 
0.0176586 -0.00319527 0.0129228 
0.0178056 -0.00318355 0.0122818 
0.0163076 -0.00341322 0.0240706 
0.016373 -0.00346061 0.026287 
0.0171519 -0.00324111 0.0153989 
0.0205987 -0.00404387 0.0516539 
0.0170285 -0.00325432 0.0161077 
0.0169746 -0.00326042 0.0164323 
0.0269763 -0.00472565 0.0809103 
0.0182883 -0.00383281 0.0429921 
0.0148397 -0.00344084 0.0263577 
0.0160138 -0.00336582 0.0220462 
0.02679 -0.00470949 0.08026 
0.0160639 -0.00332556 0.0201023 
0.0115296 -0.00332241 0.0227867 
0.0170765 -0.00365796 0.0353504 
0.0170947 -0.00323485 0.0151678 
0.0160537 -0.00331939 0.0198219 
0.0223038 -0.00381972 0.0398102 
0.0223563 -0.00425519 0.0609131 
0.016032 -0.00341162 0.0242269 
0.0239604 -0.00442383 0.0681168 
0.0160067 -0.00334858 0.0212433 
0.0194246 -0.00370517 0.0360674 
0.0134283 -0.00333636 0.0222809 
0.0167661 -0.00328074 0.0175508 
0.0183614 -0.00384981 0.0438165 
0.0168238 -0.00326927 0.0169772 
0.018654 -0.00388855 0.0455053 
0.017432 -0.00372188 0.0382352 
0.017095 -0.00323352 0.0151186 
0.0176403 -0.00375369 0.0396387 
0.0172666 -0.00321606 0.0141893 
0.0174706 -0.00319768 0.0131963 
0.0209699 -0.00387039 0.0431458 
0.0167658 -0.00361495 0.0335161 
0.0172903 -0.00321295 0.0140283 
0.0188752 -0.00376344 0.0393224 
0.0174881 -0.0031967 0.0131402 
0.017323 -0.00321045 0.0138907 
0.0542607 -0.0040549 0.0294616 
0.0175298 -0.00319219 0.0129022 
0.0163154 -0.00352396 0.0294383 
0.0148606 -0.00345649 0.0271297 
0.012566 -0.00337879 0.0248618 
0.0220311 -0.00378902 0.0385384 
0.0164814 -0.00330381 0.0188357 
0.0164814 -0.00330381 0.0188357 
0.01645 -0.00355717 0.030952 
0.0189386 -0.00392725 0.0472217 
0.0189386 -0.00392725 0.0472217 
0.0245397 -0.00390953 0.0427565 
0.0117791 -0.00338226 0.0255278 
0.017852 -0.00378594 0.0410812 
0.0160769 -0.00346331 0.0266952 
0.0167137 -0.00328132 0.0176283 
0.0244246 -0.00448071 0.0706825 
0.0170466 -0.00366839 0.035928 
0.0170466 -0.00366839 0.035928 
0.0159446 -0.00338655 0.0231153 
0.0160802 -0.00332618 0.0201579 
0.0164978 -0.00357207 0.0316499 
0.0164978 -0.00357207 0.0316499 
0.0160681 -0.00346563 0.0268237 
0.0160681 -0.00346563 0.0268237 
0.0202752 -0.00409896 0.0547364 
0.0159182 -0.00339573 0.0235823 
0.0159182 -0.00339573 0.0235823 
0.0161021 -0.00332892 0.0202841 
0.0166288 -0.00328948 0.0180862 
0.0165803 -0.00329536 0.018403 
0.0171019 -0.00321853 0.0144453 
0.0165585 -0.00329017 0.0181816 
0.0248083 -0.00472657 0.0826776 
0.0164111 -0.00331362 0.0194155 
0.0164323 -0.00330436 0.0189629 
0.0165606 -0.00327349 0.0174165 
0.0165606 -0.00327349 0.0174165 
0.0169172 -0.00322526 0.0149096 
0.0219252 -0.00443347 0.0702591 
0.0221778 -0.0044602 0.0714236 
0.0157773 -0.00344043 0.0259039 
0.049026 -0.00686451 0.174656 
0.0243621 -0.00468471 0.0811103 
0.0186334 -0.00407956 0.0550776 
0.0158167 -0.00346955 0.0272943 
0.0164412 -0.00378693 0.0422419 
0.0164412 -0.00378693 0.0422419 
0.0485278 -0.00686598 0.175172 
0.00473283 -0.00305616 0.0142354 
0.0251334 -0.00476311 0.0845212 
0.018797 -0.0040993 0.0559633 
0.018797 -0.0040993 0.0559633 
0.0165384 -0.00380193 0.0429256 
0.0165384 -0.00380193 0.0429256 
0.0162858 -0.00375651 0.040881 
0.0161232 -0.00372307 0.039365 
0.0206501 -0.0043037 0.0648109 
0.0167641 -0.00383974 0.0446323 
0.0164756 -0.00326206 0.0169773 
0.0163226 -0.00328603 0.0182178 
0.0369537 -0.00352603 0.0159743 
0.0159069 -0.00353743 0.0305602 
0.0159069 -0.00353743 0.0305602 
0.0200518 -0.00369398 0.0353386 
0.0156783 -0.00345914 0.0269346 
0.0156516 -0.0034527 0.0266425 
0.0158423 -0.00352412 0.0299678 
0.066099 -0.00444935 0.0409193 
0.0165249 -0.0038076 0.0432889 
0.0169252 -0.00380974 0.0431365 
0.0169252 -0.00380974 0.0431365 
0.0173713 -0.00393034 0.0487307 
0.0173713 -0.00393034 0.0487307 
0.0160121 -0.003329 0.0204897 
0.0332918 -0.00336688 0.0109917 
0.0332918 -0.00336688 0.0109917 
0.0161367 -0.00328618 0.0183728 
0.0161314 -0.00328511 0.0183271 
0.0225931 -0.00453451 0.0751247 
0.0160722 -0.00329374 0.0187819 
0.0464618 -0.00422425 0.0437777 
0.0823082 -0.00989933 0.314002 
0.0199554 -0.00295486 -9.27826e-07 
0.00407366 -0.0027606 -0.000158861 
0.00407366 -0.0027606 -0.000158861 
0.0603873 -0.00342154 -2.90969e-05 
0.00508047 -0.00278862 -0.000495429 
0.00564347 -0.00277915 -0.000283668 
0.00720485 -0.00279673 -0.000368189 
0.00674489 -0.00278639 -0.000238608 
0.00674489 -0.00278639 -0.000238608 
0.00674489 -0.00278639 -0.000238608 
0.00939603 -0.00281451 -0.000337252 
0.00727606 -0.0027986 -0.000389603 
0.00703239 -0.00278969 -0.000258396 
0.00787466 -0.00280498 -0.000410943 
0.00762475 -0.00280069 -0.000369762 
0.0184291 -0.00296539 0.00126389 
0.00868096 -0.00281372 -0.000440907 
0.00811152 -0.00280207 -0.000326184 
0.00760078 -0.00279457 -0.000206614 
0.00899455 -0.00281489 -0.000415728 
0.00899455 -0.00281489 -0.000415728 
0.0155403 -0.00299624 -0.000167604 
0.00875651 -0.00280963 -0.000365104 
0.0110937 -0.00284727 -0.000562835 
0.00999259 -0.00282804 -0.000477464 
0.010601 -0.00283717 -0.00052305 
0.00922889 -0.0028138 -0.00037058 
0.00882789 -0.00280842 -0.000282171 
0.0110099 -0.00284022 -0.000512378 
0.0101893 -0.00282657 -0.000440598 
0.0121467 -0.00285598 -0.0005547 
0.0121467 -0.00285598 -0.0005547 
0.0361743 -0.00329477 0.00509785 
0.0115042 -0.00284515 -0.000516489 
0.0118307 -0.00284967 -0.00052917 
0.00954146 -0.00281712 -0.000297923 
0.0103273 -0.00282671 -0.000427016 
0.0103273 -0.00282671 -0.000427016 
0.0126114 -0.00286058 -0.00054977 
0.0166006 -0.0029281 -0.000380586 
0.0171667 -0.00356823 0.0239498 
0.0162686 -0.00291876 -0.000427081 
0.012465 -0.00285402 -0.00051715 
0.0140227 -0.00293429 0.00257574 
0.0140653 -0.00287813 -0.00054295 
0.0145438 -0.00288595 -0.000536706 
0.049836 -0.0051711 0.0673613 
0.014723 -0.00288692 -0.000529664 
0.0130809 -0.00286159 -0.000526426 
0.0330855 -0.003855 0.0193821 
0.0155056 -0.00289946 -0.000497332 
0.0134656 -0.00286663 -0.000531011 
0.015835 -0.0029045 -0.000477244 
0.0145791 -0.00288307 -0.0005302 
0.0138525 -0.00287178 -0.000532843 
0.0339418 -0.00409188 0.035137 
0.0167782 -0.00291985 -0.000398993 
0.0264277 -0.00339982 0.0099829 
0.0171026 -0.00292498 -0.000363132 
0.0267482 -0.00344151 0.011459 
0.0295123 -0.00378546 0.026151 
0.189201 -0.00892548 0.148624 
0.0155161 -0.00289589 -0.000500513 
0.0164846 -0.00291215 -0.0004348 
0.0147276 -0.0028833 -0.000523954 
0.0164892 -0.0029119 -0.000435933 
0.0215689 -0.00304107 0.0013482 
0.0167198 -0.00291504 -0.000416791 
0.0191585 -0.00296454 4.98879e-05 
0.0191585 -0.00296454 4.98879e-05 
0.0177268 -0.00293248 -0.000282642 
0.0205492 -0.00299981 0.00062546 
0.0177444 -0.00293222 -0.000284375 
0.0182395 -0.00294085 -0.000197401 
0.0208394 -0.00300702 0.000802965 
0.0155639 -0.00289267 -0.000498447 
0.155688 -0.00492134 0.000241837 
0.0157105 -0.00289294 -0.000493732 
0.0197411 -0.00297109 0.000197271 
0.0692321 -0.00638516 0.101276 
0.0214296 -0.00302138 0.00122506 
0.0166488 -0.00290786 -0.000439305 
0.0166488 -0.00290786 -0.000439305 
0.0152749 -0.00288657 -0.000505439 
0.0216374 -0.00304484 0.00329057 
0.0208908 -0.00300053 0.000775252 
0.0336351 -0.00406185 0.029927 
0.0184458 -0.0029388 -0.000204658 
0.0332655 -0.00423956 0.0433114 
0.123589 -0.00697537 0.0963879 
0.0288678 -0.0038953 0.0321894 
0.0258021 -0.0035407 0.0189813 
0.0207077 -0.0029983 0.00101647 
0.0219764 -0.00304217 0.00207043 
0.0216519 -0.00321648 0.0102179 
0.0146765 -0.00287759 -0.00050592 
0.0146551 -0.00346466 0.0210153 
0.0282184 -0.00317732 0.00519097 
0.0184666 -0.00293229 -0.000243862 
0.0279299 -0.00394454 0.0357038 
0.0191326 -0.00294481 -9.745e-05 
0.0214059 -0.00304737 0.00278217 
0.0212872 -0.0030214 0.00181662 
0.021376 -0.00302838 0.00206988 
0.0211818 -0.00301423 0.00160488 
0.0250513 -0.00362175 0.0235221 
0.0212978 -0.00302135 0.00184606 
0.0212978 -0.00302135 0.00184606 
0.0200558 -0.00296282 0.000188231 
0.0200558 -0.00296282 0.000188231 
0.0205495 -0.00297551 0.000438928 
0.0221203 -0.00309682 0.00455054 
0.0221203 -0.00309682 0.00455054 
0.0220827 -0.00311557 0.00537362 
0.0220221 -0.00317794 0.00799237 
0.0828551 -0.00422292 0.0172935 
0.0448574 -0.00554635 0.0972272 
0.0219552 -0.00313678 0.00638473 
0.0214656 -0.00300705 0.00127704 
0.0217005 -0.00302143 0.00176353 
0.0217729 -0.0032325 0.0105537 
0.0207045 -0.00297791 0.000514554 
0.0283981 -0.00415955 0.0464725 
0.0209455 -0.002985 0.000685558 
0.021372 -0.0030019 0.00115518 
0.0197186 -0.00295037 -5.99238e-05 
0.0216252 -0.00301523 0.00160039 
0.0209851 -0.00308341 0.004872 
0.0213434 -0.00299894 0.00109492 
0.0212134 -0.0029933 0.000935613 
0.0171415 -0.00291043 -0.0004538 
0.021771 -0.00302893 0.00215017 
0.0203259 -0.00312162 0.00695646 
0.0209732 -0.00321472 0.0106023 
0.0170977 -0.00304093 0.00530005 
0.020499 -0.00323027 0.0117437 
0.0203348 -0.00325475 0.01295 
0.0142476 -0.00287195 -0.000502837 
0.0216601 -0.00305675 0.00354631 
0.0216601 -0.00305675 0.00354631 
0.0216973 -0.00305229 0.00333 
0.0217316 -0.00303274 0.00246317 
0.0214942 -0.00306485 0.00434503 
0.0203544 -0.00340373 0.0195975 
0.0216526 -0.00301775 0.00188946 
0.0192502 -0.00320514 0.0115508 
0.0206071 -0.00309289 0.00580973 
0.0214017 -0.00307054 0.00439544 
0.0214017 -0.00307054 0.00439544 
0.02126 -0.00308125 0.00495275 
0.0212329 -0.00308208 0.00501869 
0.0211531 -0.00308577 0.00523768 
0.0196811 -0.00313054 0.00809692 
0.019793 -0.00313228 0.00813479 
0.0186296 -0.0032114 0.0124256 
0.0193812 -0.00314764 0.00911951 
0.0224899 -0.00327126 0.0128763 
0.0224899 -0.00327126 0.0128763 
0.019056 -0.00316314 0.0100277 
0.0184986 -0.00322218 0.013024 
0.0208995 -0.00308928 0.00563428 
0.0207832 -0.00309424 0.00593386 
0.0189123 -0.00317224 0.0105508 
0.0182699 -0.00324354 0.0141722 
0.0213811 -0.00305434 0.00381147 
0.019044 -0.00345457 0.0233413 
0.019044 -0.00345457 0.0233413 
0.0188171 -0.00317013 0.0105504 
0.0210926 -0.00307205 0.00478724 
0.0181654 -0.00325036 0.0145959 
0.0181654 -0.00325036 0.0145959 
0.0190813 -0.00349572 0.025274 
0.0466052 -0.00378866 0.0220658 
0.018063 -0.00325483 0.0148987 
0.0216204 -0.00299642 0.000997055 
0.0190202 -0.00353502 0.0272471 
0.0183244 -0.00322308 0.0133364 
0.020616 -0.00309077 0.00596411 
0.01994 -0.00312636 0.00798759 
0.01994 -0.00312636 0.00798759 
0.0220462 -0.00300223 0.00099378 
0.0194778 -0.00315098 0.00940254 
0.0194778 -0.00315098 0.00940254 
0.018242 -0.0032591 0.0151088 
0.0179971 -0.00324699 0.0146946 
0.0179971 -0.00324699 0.0146946 
0.0180253 -0.00324028 0.0143713 
0.0180253 -0.00324028 0.0143713 
0.0183041 -0.00324972 0.0146336 
0.0204435 -0.00309444 0.00626803 
0.0305928 -0.00332929 0.0109852 
0.0179025 -0.00325858 0.0152984 
0.0179025 -0.00325858 0.0152984 
0.0179855 -0.00323972 0.0143878 
0.0179461 -0.00324126 0.0144971 
0.0181809 -0.00341475 0.0223644 
0.0420642 -0.00376658 0.0237362 
0.0197883 -0.00312416 0.00803722 
0.0198252 -0.00312208 0.00792444 
0.0176743 -0.00328443 0.0166767 
0.019739 -0.00312576 0.00814639 
0.0183156 -0.00320242 0.0125293 
0.0207961 -0.00307234 0.00509223 
0.0193235 -0.00314665 0.00936456 
0.0144888 -0.00312914 0.0110176 
0.020374 -0.00309078 0.00619858 
0.0107881 -0.00294775 0.00489646 
0.0202744 -0.0030941 0.00641571 
0.0201761 -0.00309762 0.00664429 
0.0197633 -0.00311674 0.00776948 
0.0205817 -0.00308156 0.00567187 
0.0180254 -0.00349103 0.0261867 
0.0180254 -0.00349103 0.0261867 
0.0193969 -0.00313494 0.00883574 
0.021413 -0.00307243 0.00476531 
0.0189435 -0.00315711 0.010144 
0.0218738 -0.00300964 0.00144859 
0.0191107 -0.00314387 0.00944964 
0.017819 -0.00322481 0.0139772 
0.0223756 -0.00301009 0.00116293 
0.0403636 -0.00360011 0.0169893 
0.020299 -0.00341117 0.0211389 
0.0202795 -0.00342598 0.0218463 
0.0177178 -0.00323218 0.0143944 
0.0176508 -0.0031973 0.0128243 
0.0172269 -0.00327934 0.016896 
0.0172269 -0.00327934 0.016896 
0.0181985 -0.00358996 0.0308699 
0.0175312 -0.00324569 0.0151627 
0.0190902 -0.00313881 0.00926204 
0.00617095 -0.00293373 0.00741619 
0.0192243 -0.00313149 0.00884669 
0.0175142 -0.00324111 0.0149745 
0.0174736 -0.00324907 0.015373 
0.0190685 -0.00313749 0.00922412 
0.018903 -0.00314644 0.00974028 
0.0173183 -0.00326834 0.0163813 
0.0185131 -0.00316867 0.0110147 
0.0167976 -0.00337151 0.0215679 
0.0171596 -0.0032894 0.0174922 
0.0171624 -0.00327548 0.016845 
0.0172514 -0.00349974 0.0273436 
0.0173252 -0.00351107 0.027835 
0.017932 -0.00368156 0.0355474 
0.0170931 -0.00329706 0.0179028 
0.0195323 -0.00321104 0.0125375 
0.0173419 -0.00352343 0.0284224 
0.0179671 -0.00358714 0.031115 
0.0167784 -0.00333698 0.0199909 
0.0167784 -0.00333698 0.0199909 
0.0167721 -0.00334519 0.0203811 
0.017122 -0.0032737 0.0168107 
0.017122 -0.0032737 0.0168107 
0.0180301 -0.00319222 0.0124539 
0.0164119 -0.00306491 0.00745805 
0.0200885 -0.00317634 0.0103937 
0.0168675 -0.00346233 0.0258694 
0.0188483 -0.00314005 0.00952918 
0.0185259 -0.00315779 0.0105504 
0.0185259 -0.00315779 0.0105504 
0.0186447 -0.00314998 0.0101165 
0.0170882 -0.00327243 0.0167933 
0.0184293 -0.00316272 0.0108447 
0.0185847 -0.00315196 0.0102503 
0.0174461 -0.00357572 0.0309137 
0.0183662 -0.00316484 0.0109864 
0.0169503 -0.00329147 0.0177849 
0.0165485 -0.0034221 0.0241966 
0.016529 -0.00343094 0.0246301 
0.0165244 -0.00343017 0.024604 
0.00372345 -0.00305296 0.0147856 
0.0186217 -0.00314741 0.0100309 
0.0174486 -0.00359331 0.0317886 
0.0191561 -0.00382276 0.0416785 
0.0175458 -0.00361156 0.0325999 
0.0175458 -0.00361156 0.0325999 
0.0164892 -0.00344072 0.0251519 
0.01648 -0.00344096 0.0251813 
0.0164835 -0.00342094 0.024237 
0.0234417 -0.00361628 0.0291253 
0.0167704 -0.00331568 0.0190816 
0.017627 -0.00321199 0.0136788 
0.0197798 -0.00355031 0.0283377 
0.0193078 -0.00385797 0.0433481 
0.0193078 -0.00385797 0.0433481 
0.0198307 -0.0031206 0.00806695 
0.0198307 -0.0031206 0.00806695 
0.0166786 -0.00334542 0.0205557 
0.0248121 -0.00362428 0.0286312 
0.0199069 -0.0031407 0.00895858 
0.0167686 -0.00329712 0.0182287 
0.0175293 -0.00363559 0.0338473 
0.0076121 -0.00301544 0.0105314 
0.0164764 -0.00341246 0.0238824 
0.0166326 -0.00337837 0.0221008 
0.0164636 -0.00340336 0.023459 
0.0158799 -0.00321339 0.0149556 
0.0171311 -0.00325086 0.0158552 
0.0156077 -0.00299387 0.00446624 
0.0119509 -0.00306728 0.0103729 
0.0177679 -0.00318789 0.0125057 
0.0268911 -0.00341577 0.0174114 
0.0097984 -0.00304586 0.0106618 
0.0164054 -0.0034556 0.0260222 
0.0259759 -0.00461125 0.0758059 
0.137914 -0.00626025 0.0810273 
0.0173265 -0.00322018 0.0143027 
0.017351 -0.00321846 0.0142085 
0.0209296 -0.00406543 0.0524985 
0.0206961 -0.00405911 0.0523539 
0.0168939 -0.00327091 0.0169814 
0.0266655 -0.0046924 0.0794591 
0.0297374 -0.00343424 0.0164785 
0.0433744 -0.00357772 0.0141891 
0.0343424 -0.00368502 0.0254978 
0.0166075 -0.00357157 0.0314918 
0.0175839 -0.00373359 0.0386577 
0.0173807 -0.00370571 0.0374446 
0.0168037 -0.00328069 0.0175103 
0.0163194 -0.00350983 0.0287204 
0.0175714 -0.00346183 0.0256375 
0.018685 -0.00388519 0.0452787 
0.0134416 -0.00333696 0.0222891 
0.0161989 -0.00347573 0.0271748 
0.0160845 -0.00343497 0.0253007 
0.0160052 -0.00336568 0.0220492 
0.0361783 -0.00374932 0.027372 
0.0146078 -0.00334586 0.021984 
0.0169839 -0.00325157 0.0160301 
0.0223694 -0.00383064 0.0402971 
0.0176369 -0.0035003 0.0274471 
0.0160307 -0.003417 0.024486 
0.0159944 -0.00335345 0.0214838 
0.0163931 -0.00330419 0.0188985 
0.0168075 -0.00327239 0.0171354 
0.0524612 -0.00391446 0.0239114 
0.0176573 -0.00318228 0.0123578 
0.0160612 -0.00344744 0.0259399 
0.0200805 -0.00312145 0.00792136 
0.0159547 -0.00338068 0.022824 
0.0240233 -0.00380493 0.0380237 
0.0192996 -0.00312943 0.00881296 
0.0160702 -0.00332467 0.0200869 
0.0146662 -0.00339546 0.0243435 
0.0159585 -0.00340594 0.0240324 
0.0159407 -0.00339447 0.0234961 
0.0159499 -0.00334419 0.0210969 
0.0159499 -0.00334419 0.0210969 
0.0146646 -0.00340559 0.0248378 
0.0159491 -0.00341599 0.0245275 
0.0159491 -0.00341599 0.0245275 
0.0159158 -0.00335384 0.0215877 
0.0159158 -0.00335384 0.0215877 
0.0173014 -0.00372726 0.0386347 
0.0167283 -0.0032666 0.0169454 
0.0165048 -0.00338254 0.0221225 
0.0174849 -0.00319218 0.0129551 
0.0223068 -0.0032537 0.0127587 
0.0169069 -0.00323966 0.0155627 
0.0172752 -0.00320356 0.013629 
0.0172752 -0.00320356 0.013629 
0.0172695 -0.00320229 0.0135761 
0.0165926 -0.00328282 0.0178161 
0.0245041 -0.0046935 0.0812551 
0.0164181 -0.00330929 0.0192019 
0.0157806 -0.00349739 0.0286137 
0.0167121 -0.00325416 0.0164008 
0.0156896 -0.00352497 0.0300009 
0.015269 -0.00321627 0.0154901 
0.0177585 -0.00323626 0.0148485 
0.0131834 -0.0034468 0.0276677 
0.016063 -0.00371951 0.0391668 
0.016063 -0.00371951 0.0391668 
0.0228985 -0.00453818 0.0748278 
0.0157283 -0.00343254 0.0255767 
0.0157283 -0.00343254 0.0255767 
0.015733 -0.00344101 0.0259857 
0.0157877 -0.00359237 0.0332487 
0.0222853 -0.00365742 0.0317074 
0.0158256 -0.00348054 0.0278318 
0.0158256 -0.00348054 0.0278318 
0.0162259 -0.00333029 0.0203711 
0.0162259 -0.00333029 0.0203711 
0.0161948 -0.00334246 0.020975 
0.0161948 -0.00334246 0.020975 
0.0161989 -0.00373844 0.04007 
0.0158298 -0.00359321 0.0332762 
0.0162472 -0.00331446 0.0196093 
0.016177 -0.00334169 0.0209564 
0.0162543 -0.00331118 0.0194492 
0.026946 -0.00494545 0.0924575 
0.0160015 -0.00370166 0.038424 
0.0157542 -0.0034656 0.0271723 
0.0161145 -0.00337906 0.0227879 
0.016564 -0.00325274 0.0164705 
0.0210914 -0.00309409 0.00597241 
0.0158554 -0.0035962 0.0334137 
0.0164366 -0.0037807 0.0419909 
0.0165341 -0.00325545 0.0166209 
0.0161356 -0.00334217 0.0210154 
0.0166689 -0.0032409 0.0158466 
0.0165513 -0.0037994 0.0428394 
0.0165513 -0.0037994 0.0428394 
0.0165513 -0.0037994 0.0428394 
0.0165117 -0.00325781 0.0167518 
0.0159067 -0.0035252 0.0299641 
0.0303474 -0.00437229 0.0619907 
0.0153693 -0.00348773 0.0285023 
0.0162919 -0.00329239 0.018541 
0.0159108 -0.00355636 0.0314687 
0.0159108 -0.00355636 0.0314687 
0.015915 -0.00353936 0.0306456 
0.0164088 -0.00327047 0.017423 
0.0210166 -0.00434954 0.0668963 
0.0210166 -0.00434954 0.0668963 
0.0216759 -0.00394548 0.046687 
0.0216759 -0.00394548 0.046687 
0.0157733 -0.00349181 0.0284437 
0.0158884 -0.00358517 0.0328803 
0.0158884 -0.00358517 0.0328803 
0.0151041 -0.00344733 0.0267295 
0.0238143 -0.00464366 0.0796042 
0.0177003 -0.00405167 0.0544406 
0.0177003 -0.00405167 0.0544406 
0.0271083 -0.00436203 0.0635972 
0.0156238 -0.00343887 0.0259961 
0.00998097 -0.00311905 0.0141238 
0.016024 -0.00369216 0.0379943 
0.016024 -0.00369216 0.0379943 
0.0160459 -0.00370109 0.0384148 
0.0160459 -0.00370109 0.0384148 
0.0160858 -0.00371121 0.0388817 
0.0160858 -0.00371121 0.0388817 
0.0181045 -0.00403123 0.0531901 
0.0181045 -0.00403123 0.0531901 
0.0165984 -0.00380799 0.0432606 
0.0169373 -0.00323527 0.0154249 
0.0189912 -0.00413929 0.0579292 
0.0161936 -0.00383746 0.0449758 
0.0163532 -0.00376819 0.0414999 
0.0174379 -0.00394246 0.0493023 
0.0179933 -0.00320895 0.0135212 
0.022777 -0.0045541 0.0759613 
0.0152083 -0.00326738 0.0180745 
0.0227479 -0.00455354 0.0759627 
0.0162114 -0.00326867 0.0174956 
0.0159676 -0.00330818 0.019556 
0.0400147 -0.00350216 0.0129867 
0.0174341 -0.00322152 0.0144935 
0.0031431 -0.00274572 2.0906e-05 
0.00296185 -0.00274941 -0.000121944 
0.0066521 -0.00278392 -0.000145703 
0.00451618 -0.00276167 -9.57572e-05 
0.00446788 -0.00276619 -0.000218942 
0.00561683 -0.00277664 -0.000229282 
0.00675999 -0.00277176 -0.000833619 
0.00584299 -0.00278053 -0.000269958 
0.00679531 -0.00277163 -0.000863862 
0.00719441 -0.0027896 -0.000204597 
0.00942341 -0.00281482 -0.000338845 
0.00286305 -0.00274135 0.000104539 
0.0075945 -0.00279493 -0.000271357 
0.0341226 -0.00314126 -0.000150701 
0.00999076 -0.00282801 -0.000477779 
0.0180075 -0.00303772 0.000399216 
0.0180075 -0.00303772 0.000399216 
0.0113897 -0.00284727 -0.000546293 
0.0283158 -0.00306216 -0.000284842 
0.0135789 -0.00288359 -0.000576761 
0.0096109 -0.0028184 -0.000393363 
0.0143811 -0.00289185 -0.000548581 
0.0120326 -0.00285169 -0.000529708 
0.0120326 -0.00285169 -0.000529708 
0.0109646 -0.00283576 -0.000471572 
0.0118803 -0.00284856 -0.000516758 
0.0174297 -0.00293653 -0.000291269 
0.0146217 -0.00288221 -0.00052663 
0.0135532 -0.00286623 -0.000524038 
0.0135532 -0.00286623 -0.000524038 
0.0122488 -0.00284755 -0.00046244 
0.0169669 -0.00292059 -0.000380389 
0.0174635 -0.00292872 -0.00031948 
0.0142529 -0.0028752 -0.000524921 
0.0142529 -0.0028752 -0.000524921 
0.034065 -0.00343961 0.0136171 
0.0132703 -0.00286102 -0.000511472 
0.015347 -0.00289164 -0.000507034 
0.0195398 -0.00296838 0.000137787 
0.01448 -0.00287637 -0.000517779 
0.0161626 -0.00289895 -0.000481237 
0.0150336 -0.00288398 -0.000511722 
0.0161899 -0.00289961 -0.000471189 
0.0161899 -0.00289961 -0.000471189 
0.017523 -0.00305483 0.00626247 
0.0173258 -0.00291627 -0.000384939 
0.0230514 -0.00313808 0.00505553 
0.0179622 -0.00292423 -0.000319287 
0.0180136 -0.00307458 0.00688772 
0.325917 -0.00782246 0.00328379 
0.0188267 -0.00293957 -0.000168418 
0.0195311 -0.0029539 1.94619e-05 
0.0139479 -0.00286847 -0.000503152 
0.0252779 -0.00305441 0.00133345 
0.0694561 -0.00439132 0.0352799 
0.0227219 -0.0031887 0.00767597 
0.0192114 -0.00294679 -7.6302e-05 
0.0155194 -0.00288831 -0.000493508 
0.0225088 -0.00320754 0.0087189 
0.0211922 -0.00301339 0.00157765 
0.0211381 -0.00305248 0.00327032 
0.0206547 -0.00297789 0.000494169 
0.0208072 -0.00298242 0.000600282 
0.020479 -0.00297283 0.000389253 
0.0203543 -0.00296905 0.00031575 
0.0205531 -0.0029741 0.00042051 
0.0220258 -0.00300579 0.000998697 
0.0207931 -0.00298063 0.000574009 
0.0199121 -0.00295617 6.62473e-05 
0.021112 -0.00299038 0.000832673 
0.021112 -0.00299038 0.000832673 
0.0217579 -0.003026 0.00197012 
0.0210818 -0.00298896 0.000812087 
0.021727 -0.00302293 0.00189327 
0.0789931 -0.00391315 0.00558706 
0.0273192 -0.00433812 0.0561941 
0.0207005 -0.00310547 0.00604999 
0.0211888 -0.00299112 0.000902841 
0.0216607 -0.00301733 0.00175603 
0.0216607 -0.00301733 0.00175603 
0.0235998 -0.0037942 0.0344846 
0.0235998 -0.0037942 0.0344846 
0.020106 -0.0031162 0.00689709 
0.0214028 -0.00300035 0.0011895 
0.0213373 -0.00299709 0.00108575 
0.013336 -0.0028607 -0.000490686 
0.024076 -0.00301581 2.89699e-05 
0.014794 -0.00305004 0.0077652 
0.0204175 -0.00324364 0.0123952 
0.0217267 -0.00304597 0.00302466 
0.0453175 -0.00334864 0.0023701 
0.0203044 -0.00326658 0.013499 
0.0401393 -0.00336182 0.00567074 
0.0204135 -0.00310512 0.00639998 
0.0215861 -0.00299756 0.00103844 
0.0208477 -0.00308477 0.00527911 
0.0217337 -0.00304266 0.00292356 
0.0201194 -0.00312197 0.00734396 
0.0198629 -0.00313893 0.008272 
0.0213003 -0.00307528 0.00495036 
0.0194924 -0.00294777 -4.82949e-05 
0.0213953 -0.0030724 0.00446715 
0.0216823 -0.00302743 0.00232564 
0.0196019 -0.00315463 0.00914741 
0.0203637 -0.00309536 0.00609779 
0.0213018 -0.00307854 0.00480766 
0.0213403 -0.00307637 0.00468972 
0.0203589 -0.00296025 1.10166e-05 
0.0198287 -0.00312976 0.00798608 
0.0224958 -0.00304367 0.00269732 
0.0191775 -0.00334421 0.0180851 
0.0191695 -0.00315641 0.00965048 
0.0191695 -0.00315641 0.00965048 
0.0193067 -0.003152 0.00937389 
0.0191035 -0.00315859 0.00980429 
0.021477 -0.00304807 0.00346186 
0.0191955 -0.00315951 0.00981501 
0.0219747 -0.00303589 0.00264467 
0.0182931 -0.00324245 0.0141181 
0.0187847 -0.00317022 0.010556 
0.0204275 -0.00311326 0.00701606 
0.0187772 -0.00317529 0.0108358 
0.0181043 -0.0032527 0.0147592 
0.0213168 -0.00298191 0.000469399 
0.018219 -0.00325027 0.0146063 
0.0182041 -0.0032438 0.0143425 
0.0202696 -0.00311012 0.00703926 
0.0202696 -0.00311012 0.00703926 
0.0184259 -0.00314982 0.0102659 
0.0216865 -0.00303726 0.00262272 
0.0199614 -0.0031264 0.00797635 
0.0180598 -0.00325578 0.0150285 
0.0203749 -0.00309932 0.00652092 
0.0219443 -0.00299613 0.000760403 
0.0209342 -0.00306812 0.00479654 
0.017762 -0.00327437 0.0161378 
0.017762 -0.00327437 0.0161378 
0.0424314 -0.00336028 0.00473158 
0.0187066 -0.00298474 0.00210601 
0.0198477 -0.00312181 0.00789411 
0.0208679 -0.00310464 0.00662746 
0.017682 -0.00328441 0.0166706 
0.0195836 -0.00313459 0.00864587 
0.021124 -0.0030697 0.0047705 
0.0194534 -0.00314109 0.00902467 
0.0202286 -0.00296099 0.000135859 
0.0175412 -0.00330153 0.0175866 
0.0181304 -0.00321718 0.0133461 
0.0214657 -0.00298957 0.000733579 
0.0175648 -0.00324019 0.0147563 
0.0202544 -0.0030954 0.00648524 
0.0202544 -0.0030954 0.00648524 
0.0201059 -0.00310159 0.00685786 
0.020207 -0.00309759 0.00661379 
0.0172421 -0.00332899 0.0191021 
0.0171716 -0.00333916 0.0196225 
0.0171214 -0.00334941 0.020144 
0.0171839 -0.00333776 0.0195615 
0.0192976 -0.00313887 0.00907674 
0.0214122 -0.00307289 0.00478606 
0.0214122 -0.00307289 0.00478606 
0.021357 -0.00307494 0.00491872 
0.0190017 -0.00315367 0.00995238 
0.017954 -0.00318357 0.0119682 
0.0216683 -0.00299887 0.00105816 
0.0172201 -0.00328515 0.0171541 
0.0202048 -0.00309351 0.00647828 
0.0452556 -0.00348624 0.00867989 
0.0224415 -0.00301304 0.00126348 
0.0170523 -0.00338575 0.0219869 
0.0170523 -0.00338575 0.0219869 
0.02378 -0.00317528 0.0081203 
0.0144625 -0.0032695 0.018137 
0.0201258 -0.00343424 0.0223901 
0.0174795 -0.00325028 0.015418 
0.0190827 -0.00313849 0.00925517 
0.0190827 -0.00313849 0.00925517 
0.0257135 -0.00361088 0.0272706 
0.0141976 -0.00307931 0.00938526 
0.0260105 -0.00318014 0.00665284 
0.0167912 -0.00337515 0.0217355 
0.0171712 -0.00328944 0.0174867 
0.0171805 -0.00326931 0.0165528 
0.0171805 -0.00326931 0.0165528 
0.0171805 -0.00326931 0.0165528 
0.200051 -0.00622425 0.0293842 
0.0171269 -0.00327304 0.0167702 
0.0171269 -0.00327304 0.0167702 
0.0167501 -0.00339726 0.0228662 
0.0208604 -0.00309217 0.00602969 
0.0170375 -0.00328174 0.0172578 
0.019767 -0.00350678 0.026173 
0.021654 -0.00411136 0.0539115 
0.0186313 -0.00314846 0.0100658 
0.0165066 -0.00346134 0.0261 
0.00372435 -0.00305306 0.0147901 
0.0165228 -0.00346708 0.0263762 
0.0168747 -0.00328427 0.0175219 
0.0180948 -0.00317776 0.0117766 
0.0168162 -0.00330785 0.0186741 
0.0168162 -0.00330785 0.0186741 
0.0164668 -0.00344738 0.0254951 
0.0222125 -0.0030186 0.00167951 
0.0164646 -0.00345503 0.025865 
0.0176801 -0.00320749 0.0134316 
0.0128127 -0.00308936 0.0108517 
0.0175643 -0.00321647 0.0139324 
0.0236803 -0.00438597 0.0663509 
0.0166474 -0.00335391 0.0209821 
0.0166557 -0.0033434 0.0204832 
0.0262468 -0.0046267 0.0762289 
0.0175401 -0.00321097 0.0137037 
0.0166669 -0.00327665 0.0173373 
0.0204798 -0.00310643 0.00695082 
0.0176277 -0.00320039 0.0131695 
0.0173821 -0.00322237 0.0143627 
0.0173821 -0.00322237 0.0143627 
0.0176316 -0.00319868 0.0130958 
0.0174118 -0.00321521 0.0140144 
0.0177295 -0.00318988 0.0126267 
0.0867698 -0.00522369 0.0658989 
0.0171095 -0.00324753 0.0157239 
0.0171095 -0.00324753 0.0157239 
0.0189183 -0.0031496 0.0100103 
0.01841 -0.00315826 0.0107314 
0.0184968 -0.00385737 0.0440324 
0.0236411 -0.00438354 0.0662952 
0.0161364 -0.00345091 0.0260222 
0.0161017 -0.00343639 0.0253528 
0.0160254 -0.0033764 0.0225423 
0.0166215 -0.00358138 0.0319632 
0.016433 -0.00353861 0.0300338 
0.0233591 -0.00435419 0.0650145 
0.0339479 -0.00368583 0.0258021 
0.0160398 -0.00340502 0.0239027 
0.0160398 -0.00340502 0.0239027 
0.0159913 -0.00335646 0.0216218 
0.0265902 -0.0038413 0.0380765 
0.0169594 -0.0032543 0.0161744 
0.0242871 -0.00446038 0.0697051 
0.0160326 -0.00342014 0.024641 
0.0167438 -0.00328551 0.0177946 
0.0225802 -0.00316597 0.00831348 
0.0241069 -0.00444261 0.0689716 
0.0225996 -0.00426037 0.0607934 
0.0159765 -0.00333601 0.0206846 
0.0500588 -0.00401528 0.030673 
0.0186109 -0.00316469 0.010933 
0.0171931 -0.0037118 0.0379609 
0.0166017 -0.00329167 0.0182117 
0.0166357 -0.00327964 0.0176207 
0.0187703 -0.00393 0.047531 
0.0162307 -0.00365743 0.0359673 
0.00517818 -0.00292051 0.0073405 
0.0170938 -0.00322164 0.0145897 
0.0100915 -0.00323414 0.0195569 
0.0167119 -0.00326695 0.0169763 
0.0591196 -0.00423882 0.035079 
0.0169219 -0.00323768 0.0154599 
0.0171425 -0.00321443 0.0142244 
0.0171425 -0.00321443 0.0142244 
0.0168913 -0.00324102 0.0156406 
0.016935 -0.00323587 0.01537 
0.0158149 -0.00345878 0.0267094 
0.018099 -0.00360368 0.0322288 
0.0222968 -0.00384192 0.0410526 
0.014711 -0.00359965 0.0341974 
0.015529 -0.00360501 0.0339363 
0.0167066 -0.00325359 0.0163809 
0.0167666 -0.0032442 0.0158992 
0.0163227 -0.00332666 0.0201052 
0.0183342 -0.00318007 0.0118517 
0.0240661 -0.00465477 0.079815 
0.0223088 -0.00447438 0.0720726 
0.0158382 -0.00348404 0.0279908 
0.0162375 -0.00332856 0.0202834 
0.0162375 -0.00332856 0.0202834 
0.0156767 -0.00342949 0.0254775 
0.0162013 -0.00334552 0.0211209 
0.0158533 -0.0036434 0.0356909 
0.016294 -0.0032996 0.0188708 
0.016294 -0.0032996 0.0188708 
0.0162776 -0.00330314 0.0190537 
0.0163967 -0.00327654 0.0177142 
0.0164729 -0.00326324 0.0170325 
0.016496 -0.00326027 0.0168764 
0.0163386 -0.00328825 0.0183107 
0.0165529 -0.00379951 0.0428433 
0.0165529 -0.00379951 0.0428433 
0.0214101 -0.00448445 0.0732958 
0.0161833 -0.00331966 0.0199126 
0.0170027 -0.00323195 0.015221 
0.0159013 -0.00356396 0.0318561 
0.0159776 -0.00339021 0.0234351 
0.0234494 -0.00451617 0.0735714 
0.0163741 -0.00326365 0.0171333 
0.0204266 -0.00402413 0.051373 
0.0173846 -0.0032234 0.0145882 
0.0162433 -0.0032671 0.0173946 
0.0160081 -0.00330123 0.0191946 
0.0160316 -0.0032913 0.0187098 
0.0159976 -0.00329391 0.0188614 
0.0160381 -0.00328581 0.018448 
0.0256859 -0.00313752 0.00509489 
0.00404273 -0.00276113 -0.000184612 
0.00586078 -0.00280085 -0.000559118 
0.00505407 -0.00276731 -0.000123609 
0.0444184 -0.00347708 0.00882304 
0.0325076 -0.00311821 -0.000222297 
0.01672 -0.00290405 -0.000451805 
0.00678687 -0.00278574 -0.000217648 
0.00338422 -0.0027468 4.6275e-05 
0.00913904 -0.00281195 -0.000300876 
0.0141765 -0.00288081 -0.00054465 
0.0206376 -0.00301635 0.000749346 
0.0177289 -0.00293226 -0.000282428 
0.0177289 -0.00293226 -0.000282428 
0.0375892 -0.00319684 0.000233921 
0.0251526 -0.00315676 0.00634079 
0.0179731 -0.00293309 -0.000271047 
0.00661937 -0.0027825 -0.000191929 
0.0325606 -0.00330781 0.00866582 
0.0148649 -0.00288003 -0.000504531 
0.0120962 -0.00284849 -0.000364438 
0.0147975 -0.00287872 -0.000502456 
0.0173159 -0.00291281 -0.000399469 
0.0201283 -0.0029717 0.000287629 
0.0201283 -0.0029717 0.000287629 
0.0145138 -0.00287515 -0.000513168 
0.0248521 -0.00316687 0.00700989 
0.0209283 -0.00300346 0.00117083 
0.0154441 -0.00288706 -0.000496611 
0.00522415 -0.00276237 -0.000418062 
0.0162063 -0.00289711 -0.000476488 
0.0222022 -0.00308281 0.0038322 
0.0427012 -0.00353782 0.0127768 
0.0237777 -0.0035745 0.0234751 
0.0193547 -0.0029463 -7.17634e-05 
0.0217556 -0.0030274 0.00199623 
0.0217487 -0.00302757 0.00202208 
0.021025 -0.00298723 0.000747065 
0.0157731 -0.00298114 0.00338343 
0.0212083 -0.00304587 0.00311619 
0.0209747 -0.00308098 0.00474292 
0.0158853 -0.00289317 -0.000486045 
0.022089 -0.00314846 0.0061797 
0.0237565 -0.003753 0.0321868 
0.0208975 -0.00298155 0.000632343 
0.0217921 -0.0030453 0.00284598 
0.0213561 -0.00299797 0.00111151 
0.0213561 -0.00299797 0.00111151 
0.0214783 -0.00300423 0.00132176 
0.0215693 -0.00300989 0.00153315 
0.0205922 -0.00321593 0.0110341 
0.0205922 -0.00321593 0.0110341 
0.0206677 -0.00336537 0.0175311 
0.0213091 -0.00299289 0.000969431 
0.0455688 -0.00335653 0.00256918 
0.020291 -0.00310974 0.00668154 
0.0215265 -0.00306969 0.0042171 
0.0207255 -0.00309106 0.00562239 
0.0200262 -0.00312674 0.0076154 
0.0190698 -0.00319972 0.0115344 
0.0198567 -0.00349376 0.0243542 
0.0194776 -0.00313872 0.00861356 
0.0192521 -0.00315525 0.00949885 
0.019191 -0.0031588 0.00971768 
0.0195805 -0.0031424 0.00875192 
0.0212001 -0.00307359 0.00472788 
0.0213933 -0.00305423 0.00379479 
0.018226 -0.00300648 0.00353996 
0.018226 -0.00300648 0.00353996 
0.0214119 -0.00305167 0.00367097 
0.0213196 -0.00305801 0.00401929 
0.0197251 -0.0035974 0.0295421 
0.0209492 -0.00307927 0.00520702 
0.0207508 -0.00308971 0.00579848 
0.0207508 -0.00308971 0.00579848 
0.0179246 -0.00332469 0.0181676 
0.021178 -0.00306567 0.00458568 
0.0203384 -0.00310086 0.00662023 
0.0204307 -0.0030945 0.00628511 
0.0215673 -0.00299129 0.000774876 
0.0215673 -0.00299129 0.000774876 
0.0201254 -0.00310985 0.00716974 
0.0209256 -0.00310284 0.00650503 
0.0361103 -0.00357275 0.0188545 
0.0176213 -0.00329161 0.0170587 
0.0176213 -0.00329161 0.0170587 
0.0176915 -0.00323224 0.0142991 
0.0538763 -0.0040537 0.0298789 
0.0218587 -0.00300172 0.00109551 
0.0200621 -0.00380476 0.0396236 
0.019491 -0.00313059 0.0085728 
0.019491 -0.00313059 0.0085728 
0.0201529 -0.00382876 0.0407588 
0.0189693 -0.00315716 0.0101243 
0.0189693 -0.00315716 0.0101243 
0.0190714 -0.00315148 0.00980103 
0.0190714 -0.00315148 0.00980103 
0.0172482 -0.00332009 0.0187297 
0.04377 -0.00394298 0.0315748 
0.0215038 -0.00306768 0.00446841 
0.0360324 -0.00353473 0.0170911 
0.0177775 -0.00319013 0.0124011 
0.0195633 -0.00311685 0.00795036 
0.0195633 -0.00311685 0.00795036 
0.0187401 -0.00315847 0.0103823 
0.0221902 -0.00301973 0.00175312 
0.0169578 -0.00335677 0.0207409 
0.018379 -0.00317881 0.0115642 
0.0177965 -0.00364346 0.0337778 
0.0175052 -0.00321344 0.0137314 
0.0205956 -0.00311725 0.00739367 
0.0203404 -0.00309677 0.00659599 
0.0188449 -0.00314066 0.00955738 
0.0210049 -0.00309775 0.00622309 
0.016648 -0.00342616 0.0243016 
0.0165759 -0.00343569 0.0248123 
0.0200436 -0.00311309 0.00755702 
0.0165231 -0.00343942 0.025039 
0.0165198 -0.00343676 0.0249312 
0.0165198 -0.00343676 0.0249312 
0.0190009 -0.00313188 0.00907902 
0.0165156 -0.00340898 0.0236309 
0.0197778 -0.0031833 0.0110688 
0.0222262 -0.00419415 0.0576868 
0.0182271 -0.00316445 0.0111812 
0.016498 -0.00342222 0.0243203 
0.0174802 -0.00321792 0.0140699 
0.0187365 -0.00314421 0.00984697 
0.023869 -0.00308747 0.00388146 
0.0227459 -0.00426513 0.060919 
0.0180652 -0.00316962 0.0114556 
0.0174129 -0.00321626 0.0140558 
0.0173339 -0.00322776 0.0146468 
0.0203483 -0.00311224 0.00732554 
0.0231241 -0.00431783 0.0633336 
0.0165365 -0.00355875 0.0309206 
0.0383546 -0.0034772 0.0128214 
0.0193929 -0.0039716 0.0490115 
0.0188616 -0.00390981 0.0463624 
0.0181503 -0.00381706 0.042334 
0.0162998 -0.00350641 0.0285803 
0.0160716 -0.00343133 0.0251386 
0.0341247 -0.00362146 0.0225638 
0.0195915 -0.00314048 0.00915694 
0.0199893 -0.00404984 0.0524728 
0.0200938 -0.00312122 0.00790189 
0.0186054 -0.00316841 0.0111287 
0.0169526 -0.00324009 0.0155394 
0.0194717 -0.00314547 0.0094723 
0.0158328 -0.00343244 0.0254207 
0.0157928 -0.00345716 0.0266386 
0.0376219 -0.00350717 0.014723 
0.013496 -0.00298401 0.00533262 
0.0154297 -0.00357408 0.0324987 
0.0154896 -0.00358953 0.0332149 
0.0189238 -0.00315955 0.0104859 
0.0458041 -0.00398128 0.031711 
0.0164921 -0.00328249 0.0178928 
0.135185 -0.0139401 0.508875 
0.017667 -0.00319873 0.0131949 
0.0189245 -0.0032321 0.0139719 
0.019843 -0.00321266 0.0124383 
0.0195232 -0.00316999 0.0104416 
0.0162442 -0.0033141 0.019589 
0.0162096 -0.00332702 0.0202314 
0.0161595 -0.00335145 0.0214329 
0.0173459 -0.00313512 0.0102461 
0.0162939 -0.0032922 0.0185275 
0.0158992 -0.00353134 0.0302708 
0.0163651 -0.00327673 0.0177506 
0.0229899 -0.00456033 0.0760287 
0.0159823 -0.00368224 0.037545 
0.0179265 -0.00401072 0.052325 
0.0159037 -0.00354808 0.0311085 
0.0156767 -0.00349715 0.0288028 
0.0163308 -0.00325638 0.0168283 
0.0161008 -0.00328856 0.0185147 
0.0161746 -0.0032742 0.0177833 
0.0160311 -0.00329148 0.0187184 
0.00580855 -0.00278109 -0.000296023 
0.00816328 -0.00282847 -0.000627994 
0.00297591 -0.00274218 6.73753e-05 
0.0286002 -0.00339876 0.00643476 
0.0463147 -0.00352074 0.00959981 
0.0223379 -0.00305534 0.00154207 
0.00892985 -0.0028086 -0.000250748 
0.00419211 -0.00275604 1.01272e-05 
0.017524 -0.00295631 -0.000193151 
0.0600412 -0.00383977 0.015146 
0.0253643 -0.00314958 0.00586752 
0.0253643 -0.00314958 0.00586752 
0.0291519 -0.00307368 -0.000255054 
0.0129579 -0.00285599 -0.000481146 
0.0432889 -0.00348781 0.0100687 
0.0139375 -0.00286942 -0.000518089 
0.0135926 -0.00286372 -0.000494445 
0.0135926 -0.00286372 -0.000494445 
0.0731773 -0.00380413 0.00459351 
0.0731773 -0.00380413 0.00459351 
0.0313104 -0.0033375 0.0108744 
0.0152738 -0.00288485 -0.000498958 
0.00528549 -0.00277748 0.000269288 
0.0485425 -0.00378184 0.0203583 
0.0216873 -0.00299854 0.00103958 
0.0222516 -0.00323065 0.00999773 
0.0212658 -0.00303616 0.00262539 
0.021213 -0.00304432 0.00302489 
0.021269 -0.00299588 0.00100206 
0.0231919 -0.0036591 0.0283144 
0.0177033 -0.00291795 -0.00038507 
0.0214961 -0.00300689 0.00137498 
0.021154 -0.0029821 0.00056833 
0.0214745 -0.00300386 0.00131578 
0.0216819 -0.00301952 0.00189068 
0.0122059 -0.00309841 0.0114292 
0.0217469 -0.00303166 0.00239439 
0.0109726 -0.0028541 0.000539401 
0.0216551 -0.0030176 0.00188543 
0.020176 -0.00342016 0.0205423 
0.019098 -0.00321033 0.0119122 
0.020551 -0.00308962 0.00572175 
0.020551 -0.00308962 0.00572175 
0.0172286 -0.00291133 -0.000421516 
0.0200637 -0.00295636 2.00848e-05 
0.0200637 -0.00295636 2.00848e-05 
0.0215302 -0.00304694 0.00342479 
0.0197422 -0.00368698 0.033977 
0.0200427 -0.00311171 0.00731401 
0.0206517 -0.00309149 0.00613006 
0.0174751 -0.00330947 0.0180152 
0.0200124 -0.00310771 0.00719548 
0.0190594 -0.00315018 0.00975516 
0.0396253 -0.00368923 0.0220572 
0.0189143 -0.0031525 0.00997774 
0.0189143 -0.0031525 0.00997774 
0.0304026 -0.00352935 0.0206287 
0.0344533 -0.0035636 0.0195351 
0.0457736 -0.00349742 0.00885129 
0.0170341 -0.00340588 0.0229659 
0.0170341 -0.00340588 0.0229659 
0.018478 -0.00317148 0.0111637 
0.0178172 -0.00363185 0.0331874 
0.0208814 -0.00398108 0.0478963 
0.0182784 -0.00318324 0.0118426 
0.0183327 -0.00317833 0.0115814 
0.0390606 -0.00371459 0.0236775 
0.0173234 -0.00322614 0.0144503 
0.0893938 -0.00502822 0.0535931 
0.019528 -0.00312665 0.00851873 
0.0198667 -0.00311938 0.00795862 
0.0213911 -0.00299975 0.00127908 
0.0194809 -0.00312848 0.00863643 
0.016468 -0.00347174 0.0266598 
0.016487 -0.00344006 0.0251474 
0.0175632 -0.0036393 0.033979 
0.0175632 -0.0036393 0.033979 
0.0218006 -0.00301709 0.00185302 
0.0186374 -0.00314689 0.0100362 
0.0187428 -0.00315283 0.0102782 
0.0281395 -0.00347797 0.0196769 
0.0178833 -0.00318067 0.0120891 
0.0176604 -0.00319557 0.0129309 
0.0204823 -0.00402592 0.0508357 
0.0184551 -0.00383207 0.0428011 
0.0193009 -0.00381796 0.0408493 
0.0183311 -0.00380541 0.0416119 
0.0163155 -0.00346999 0.0267972 
0.0163223 -0.00341154 0.0240063 
0.0163296 -0.00339077 0.023014 
0.0163296 -0.00339077 0.023014 
0.0207453 -0.00406829 0.0527861 
0.0177071 -0.00340169 0.0226669 
0.0160238 -0.00337475 0.0224549 
0.0209402 -0.00328965 0.0149583 
0.0162462 -0.00330404 0.0189672 
0.0160575 -0.00332166 0.0199237 
0.0160575 -0.00332166 0.0199237 
0.0242601 -0.00445954 0.0696805 
0.0185174 -0.00316715 0.0111146 
0.0167371 -0.00327508 0.01732 
0.019153 -0.0031487 0.00981844 
0.0330906 -0.00369653 0.026923 
0.0164227 -0.00358669 0.032432 
0.0165153 -0.00360521 0.0332642 
0.017895 -0.00318694 0.0124509 
0.0166339 -0.00327615 0.0174662 
0.036606 -0.00381861 0.0304742 
0.0157682 -0.00338287 0.0231191 
0.0157682 -0.00338287 0.0231191 
0.0100328 -0.00309436 0.0127536 
0.214356 -0.00704805 0.0674118 
0.0273757 -0.00353076 0.0227567 
0.016854 -0.00323327 0.0153264 
0.018835 -0.003164 0.0107574 
0.0184536 -0.00317539 0.0115476 
0.0158273 -0.00345844 0.0267337 
0.0771019 -0.0093615 0.287057 
0.0848555 -0.00525444 0.0689787 
0.0162142 -0.00335352 0.0214805 
0.0162154 -0.00334548 0.0210957 
0.0162101 -0.00333675 0.0206934 
0.0162307 -0.00332064 0.0199146 
0.0165507 -0.00325465 0.0165688 
0.0277153 -0.00502672 0.0960222 
0.0162763 -0.00329928 0.0188763 
0.016339 -0.00328355 0.0180901 
0.0159064 -0.00355231 0.0312813 
0.0159094 -0.00354073 0.0307246 
0.0155719 -0.00344341 0.0262528 
0.00684224 -0.00310906 0.0155757 
0.0160047 -0.00332637 0.020372 
0.0179203 -0.00321232 0.0137312 
0.0155998 -0.0034637 0.0272465 
0.0161013 -0.00329006 0.0185843 
0.0160246 -0.00329137 0.0187169 
0.00534497 -0.00277178 -0.000171814 
0.00940913 -0.00281735 -0.00040174 
0.00894659 -0.00280878 -0.000252139 
0.0237638 -0.0031191 0.00369009 
0.0164343 -0.00291284 -0.000432829 
0.0226421 -0.00308144 0.00262632 
0.0218441 -0.00324922 0.0111801 
0.0216812 -0.00302054 0.00177877 
0.0210627 -0.00332115 0.0151472 
0.0200133 -0.00313109 0.00769503 
0.312212 -0.00921648 0.126723 
0.0201931 -0.00310462 0.0066497 
0.0219147 -0.00304595 0.00318012 
0.0205499 -0.00296966 0.000355408 
0.0184564 -0.00319854 0.012241 
0.0173839 -0.00332473 0.0187942 
0.0173839 -0.00332473 0.0187942 
0.019222 -0.00314009 0.00919008 
0.017201 -0.00332045 0.0187772 
0.0212026 -0.00317107 0.00924396 
0.0212026 -0.00317107 0.00924396 
0.00957799 -0.00307275 0.0119014 
0.0169601 -0.00335317 0.020539 
0.0353517 -0.00363956 0.0225784 
0.0167369 -0.00336152 0.0211903 
0.0179877 -0.00369661 0.0363538 
0.0184827 -0.00315404 0.0104315 
0.0382967 -0.00375007 0.0259366 
0.0192344 -0.00360934 0.0317951 
0.0161744 -0.00334116 0.0207532 
0.0160966 -0.00344335 0.0256906 
0.0328714 -0.00364494 0.0245591 
0.0328714 -0.00364494 0.0245591 
0.016844 -0.0036581 0.0356011 
0.0678214 -0.00433858 0.0340208 
0.0304387 -0.00357692 0.0229006 
0.0177818 -0.00319738 0.0130294 
0.200447 -0.00882322 0.186288 
0.0204604 -0.00309863 0.00658116 
0.0160732 -0.00338423 0.023069 
0.0163435 -0.0032837 0.0180946 
0.0171735 -0.00322573 0.0148197 
0.0240696 -0.00469459 0.0820901 
0.016045 -0.00328609 0.0184549 
0.00245185 -0.00276109 -0.000401192 
0.0173785 -0.00291342 -0.000411021 
0.0231961 -0.00358246 0.0205994 
0.0121756 -0.00284661 -0.000454492 
0.0227874 -0.00320777 0.00857978 
0.031885 -0.00312215 0.000414126 
0.0548183 -0.00533025 0.082512 
0.0282562 -0.00307707 0.000189125 
0.0220835 -0.00302704 0.0021637 
0.0351666 -0.00319652 0.00184636 
0.019705 -0.00351799 0.0256774 
0.0197049 -0.00356313 0.0278907 
0.018638 -0.00320545 0.012254 
0.018638 -0.00320545 0.012254 
0.0218911 -0.00304872 0.00331995 
0.0196139 -0.00359886 0.0297295 
0.0184702 -0.00321715 0.0129382 
0.0221453 -0.00303788 0.00264282 
0.0174225 -0.00341995 0.0232277 
0.0173134 -0.00330565 0.0179943 
0.0178607 -0.00322438 0.0139141 
0.0214033 -0.00308061 0.00515419 
0.0170735 -0.00333405 0.0195738 
0.0170735 -0.00333405 0.0195738 
0.0188907 -0.00366002 0.0332882 
0.0166362 -0.00342393 0.0242149 
0.0216532 -0.00307394 0.00467019 
0.0172579 -0.00355817 0.0302481 
0.458421 -0.0102461 0.0630825 
0.0191319 -0.00313951 0.00937744 
0.0181193 -0.00363749 0.0327048 
0.0117806 -0.00338355 0.0255634 
0.0181287 -0.00384295 0.0437072 
0.0205573 -0.00311318 0.00723225 
0.0171573 -0.00321337 0.0141945 
0.0772649 -0.00444544 0.0324939 
0.0175034 -0.00320844 0.0137465 
0.0162892 -0.00330499 0.019131 
0.0168503 -0.00324045 0.0157156 
0.0172772 -0.00322589 0.0147755 
0.0162706 -0.00326179 0.0171302 
0.0160257 -0.00329337 0.0188093 
0.016057 -0.00328621 0.0184488 
0.016057 -0.00328621 0.0184488 
0.0170364 -0.00323566 0.0154213 
0.0327049 -0.0032499 0.00069423 
0.00800258 -0.00279763 -0.000479795 
0.021711 -0.00332213 0.0147879 
0.0214236 -0.00303291 0.0022334 
0.0393365 -0.00513014 0.0824536 
0.0236781 -0.00377674 0.033465 
0.00687822 -0.00281971 0.00132956 
