ply
format ascii 1.0
element vertex 1776
property float x
property float y
property float z
element face 0
property list uchar int vertex_index
end_header
1.4865 0.742387 6.47591 
1.44076 0.742111 6.49595 
1.44964 0.723504 6.48274 
0.461791 0.81924 7.61349 
-1.73293 0.594942 6.04434 
0.474306 0.763586 7.49547 
1.82348 0.553923 5.04245 
-1.9574 0.521299 5.69445 
0.918527 0.73347 7.34269 
0.918527 0.73347 7.34269 
1.44085 0.643116 6.47376 
2.31157 1.50055 10.4287 
0.503327 0.725571 7.60311 
-1.93015 0.492646 5.73444 
0.51972 0.709854 7.58147 
3.35646 1.39371 7.25324 
-1.66816 1.17898 6.21812 
-2.13595 0.424395 5.32076 
0.520308 0.682007 7.60051 
0.191273 0.674468 7.60377 
-2.13086 0.41343 5.31855 
1.95043 0.408866 4.31029 
0.517091 0.667611 7.584 
-2.12871 0.402585 5.32831 
-1.75655 0.451231 5.99273 
1.92728 0.388583 4.53272 
1.95947 0.360415 4.20929 
2.11915 0.225978 4.76317 
1.9419 0.36937 4.37202 
1.92984 0.379531 4.5019 
0.0966481 0.563184 7.66082 
1.91564 0.377641 4.57893 
-1.7472 0.407858 6.00485 
0.797954 0.536654 7.44673 
-0.292282 0.282056 7.7277 
0.243915 0.542255 7.84613 
0.243915 0.542255 7.84613 
-0.669148 0.475901 7.25729 
0.249946 0.509607 7.85965 
-1.74715 0.337904 5.97886 
-2.26873 0.263383 4.97095 
-1.74587 0.31448 5.98122 
-1.13386 0.372393 7.02335 
1.81762 0.293653 5.05809 
1.77765 0.299573 5.19802 
-1.14725 0.347055 7.00989 
-1.14725 0.347055 7.00989 
-1.14725 0.347055 7.00989 
1.82022 0.28952 5.01395 
-4.22389 -0.834926 12.9395 
-3.52646 1.94998 10.641 
-1.91202 0.261514 5.71017 
1.91826 0.260675 4.58333 
1.91826 0.260675 4.58333 
1.83044 0.277965 5.03972 
1.928 0.251845 4.50053 
1.928 0.251845 4.50053 
-1.89706 0.253848 5.7487 
-1.89706 0.253848 5.7487 
1.9676 0.232685 4.16618 
1.94401 0.24051 4.35069 
-1.92214 0.899561 5.69726 
-1.99563 0.233509 5.58575 
-1.89849 0.24047 5.74141 
1.84167 0.236059 4.96846 
-0.802196 0.24793 7.35714 
1.25012 0.253436 6.8527 
1.25012 0.253436 6.8527 
-2.10386 -0.0909721 4.14592 
0.832196 0.255504 7.35946 
-0.11442 0.118217 3.56008 
1.25311 0.234466 6.83613 
1.25311 0.234466 6.83613 
1.87959 0.174402 4.80047 
1.58361 0.215576 6.2289 
-0.816292 0.21818 7.34124 
-0.225839 0.230349 7.63709 
0.322836 0.238117 8.05544 
-1.65981 0.156113 6.08281 
0.435052 0.225979 7.66874 
-0.556295 -0.106615 1.00405 
-0.57936 0.170465 7.26512 
-0.57936 0.170465 7.26512 
-0.52557 0.153032 7.2742 
-2.24836 0.0836811 4.993 
0.19587 0.169017 8.11029 
-1.98051 0.0820535 5.57048 
-1.84638 0.0713708 5.79162 
-2.06774 0.0594758 5.39853 
-55.6837 -12.6212 -538.257 
-1.80035 0.0646687 5.86128 
0.163794 0.114626 8.11975 
-1.95665 0.0537002 5.60608 
-2.02682 0.0509546 5.48571 
-2.06053 0.0485032 5.42062 
1.76336 0.0777545 5.27278 
1.76336 0.0777545 5.27278 
-1.79367 0.043989 5.87146 
-1.79367 0.043989 5.87146 
0.410286 0.0780751 7.9902 
0.410286 0.0780751 7.9902 
-1.98841 0.033356 5.55518 
-2.21452 0.0199566 5.05687 
1.83783 0.0430411 5.00227 
1.4688 0.0307633 6.44009 
-0.371996 -0.384197 3.67137 
-0.741726 -0.00265305 7.18001 
0.555344 0.00683297 7.57191 
-1.7902 -0.0229893 5.86784 
0.515819 -0.0147511 7.71331 
-2.20665 -0.040281 5.06227 
-1.76727 -0.046414 5.8928 
-2.62882 1.41261 8.24472 
-2.02426 -0.0670445 5.47114 
-2.16707 0.84219 5.42866 
-1.20909 -0.250025 4.91275 
-1.57896 -0.0733537 6.14461 
-1.77662 -0.0718745 5.87602 
-1.79471 -0.0718666 5.85044 
-0.735526 0.0886512 4.32318 
-1.45346 -0.0898172 6.85804 
1.74 -0.0687525 6.1739 
-1.60612 -0.0859522 6.09311 
-2.63843 0.548463 5.44358 
-1.45524 -0.126827 6.868 
1.743 -0.106776 6.17875 
-2.64389 -0.242653 5.19431 
1.91811 -0.090786 4.5826 
-0.0596374 -0.166551 7.67109 
1.98891 -0.0825066 3.86006 
1.89622 -0.104552 4.72634 
1.98806 -0.0945476 3.85348 
-0.878178 -0.092028 -1.70734 
1.96001 -0.113461 4.34924 
1.9267 -0.123749 4.57928 
1.96374 -0.126496 4.32891 
1.97415 -0.141486 4.16551 
-2.00084 -0.191877 5.50082 
1.80953 -0.175423 5.10055 
-1.72892 -0.214131 5.94113 
-0.152829 -0.292724 7.77639 
-0.385266 -0.21418 5.64483 
-1.72868 -0.231404 5.92358 
-1.89556 -0.222606 5.68992 
-2.73418 0.0176509 7.64672 
-2.11836 0.0103572 5.5928 
-2.11836 0.0103572 5.5928 
-1.98705 0.239525 4.86481 
-0.774944 0.258465 -2.81103 
1.73071 -0.54264 12.3379 
1.90999 -0.211803 4.6346 
1.83013 -0.228745 5.0204 
-1.70834 -0.267827 5.95941 
1.89397 -0.219389 4.73726 
-1.7326 -0.273288 5.92563 
1.8854 -0.225083 4.79067 
1.98122 -0.201664 4.1918 
-1.7061 -0.281918 5.96186 
-2.01725 -0.289318 5.44996 
-1.67849 -0.320985 5.98555 
-2.0383 -0.299415 5.40042 
-1.71931 -0.34785 5.91869 
1.94179 -0.283571 4.43994 
1.86524 -0.313932 4.88152 
-1.76076 -0.388698 5.86603 
-1.88632 -0.377024 5.69876 
-1.78167 -0.467682 6.86078 
-1.78167 -0.467682 6.86078 
2.0197 -0.444761 6.13376 
2.02395 -0.451183 6.09359 
-1.78303 -0.484275 6.83827 
-0.964903 -0.557322 7.7338 
-1.08724 -0.552011 7.67015 
-0.474301 -0.581386 8.01072 
-0.991686 -0.344301 4.68193 
-1.74204 -0.42277 5.86049 
1.42373 -0.550327 7.34271 
0.987308 -0.578874 7.77272 
1.60667 2.52136 -35.594 
1.91567 -0.492383 6.45319 
-1.86646 -0.415466 5.66806 
1.85962 -0.50624 6.58105 
-0.844108 -0.586046 7.81149 
-1.06028 -0.575004 7.66215 
-1.06028 -0.575004 7.66215 
-1.58364 -0.531362 7.12211 
-1.58364 -0.531362 7.12211 
-2.12906 -0.928347 7.38181 
-2.12906 -0.928347 7.38181 
-1.74339 -0.437128 5.86322 
0.229891 -0.618005 8.07974 
-0.18766 -0.265693 3.37684 
-0.445476 -0.607597 8.00834 
-1.90462 -0.420899 5.62039 
0.887428 -0.606052 7.83713 
-0.366777 -0.613231 8.03294 
-2.02708 -0.403464 5.38202 
0.314188 -0.623055 8.0801 
1.44352 -0.573333 7.30465 
-1.96251 -0.416003 5.49478 
-0.436164 0.0467882 1.1354 
1.85943 -0.524044 6.56844 
-2.08244 -0.401475 5.26697 
-2.08244 -0.401475 5.26697 
-0.405798 0.0374337 0.955091 
-2.21673 -0.386905 4.97617 
1.82576 -0.427221 5.03802 
1.86655 -0.421192 4.90331 
1.86655 -0.421192 4.90331 
1.94395 -0.384463 4.43599 
-0.665389 0.125644 -1.7926 
1.94485 -0.390156 4.48458 
1.99425 -0.346806 3.82373 
-2.0368 -0.44978 5.376 
-1.67363 -0.606775 6.97004 
-1.75697 -0.596827 6.86893 
-1.42454 -0.640842 7.31424 
-0.862313 -0.688834 7.79184 
-0.22512 -0.720057 8.05498 
-3.05062 -0.698231 8.54747 
1.08641 -0.702163 7.68584 
-1.34174 -0.65734 7.4007 
0.754091 -0.7213 7.90688 
1.96179 -0.590392 6.29263 
1.5989 -0.658569 7.07741 
1.69197 -0.654178 6.9437 
-0.22544 -0.207283 2.09622 
-2.04737 -1.71231 19.0075 
-1.19161 -0.689879 7.52701 
0.732788 -0.748736 7.92175 
0.732788 -0.748736 7.92175 
0.547633 -0.757182 8.01966 
0.547633 -0.757182 8.01966 
1.97219 -0.610419 6.25674 
-0.965564 -0.730374 7.71468 
-0.375545 -0.166102 1.52904 
0.0428185 -0.812804 8.07175 
0.434608 -0.144356 -5.38383 
0.438459 -0.00773561 2.54141 
-0.353666 0.0345959 1.19626 
-0.630377 -0.23068 1.67225 
1.87028 -0.544627 4.86945 
1.93192 -0.518492 4.58198 
1.93192 -0.518492 4.58198 
1.9097 -0.536152 4.69493 
-2.16437 -0.53771 5.05735 
1.91989 -0.543234 4.64367 
-0.138635 0.295879 -3.30572 
0.792053 -0.924948 8.12244 
-2.2225 -0.573127 4.90995 
-2.2225 -0.573127 4.90995 
-2.16666 -0.599757 5.03708 
-0.437247 -0.0144644 1.01169 
-0.659664 -0.207604 2.06588 
-0.286307 -0.152462 0.900277 
-2.05396 -0.659144 5.29339 
-1.39683 -0.135661 3.3841 
1.99111 -0.562811 4.04776 
-1.95678 -0.701032 5.47645 
-1.83228 -0.740246 5.69057 
-0.455969 0.0928975 1.36826 
1.89157 -0.687948 4.78604 
1.97031 -0.636353 4.34006 
1.87559 -0.704132 4.84198 
1.89742 -0.696101 4.75705 
1.99984 -0.577644 3.82026 
-2.07909 -0.718832 5.24078 
-1.98462 -0.759282 5.42669 
-1.98462 -0.759282 5.42669 
1.89936 -0.825632 4.78603 
-2.04405 -0.825778 5.28753 
-2.18731 -0.779112 4.94131 
-0.733537 -0.610542 3.25854 
-2.18329 -0.793038 4.95172 
-2.18481 -0.809771 4.93779 
-2.13945 -0.830468 5.04207 
-2.11696 -0.843857 5.10842 
-2.15963 -0.822302 4.96963 
-2.17828 -0.822888 4.96205 
1.9967 -0.765017 4.07338 
1.89441 -0.894391 4.82004 
1.86246 -1.22351 6.63019 
1.96504 -3.11044 17.227 
-2.04072 -0.903254 5.27316 
-1.57801 -2.65623 14.901 
-1.73314 -1.2044 6.8454 
-1.73314 -1.2044 6.8454 
-0.243304 -3.05327 16.7894 
-0.243304 -3.05327 16.7894 
-1.78788 -1.01037 5.72303 
1.96466 -3.25413 17.1691 
1.96466 -3.25413 17.1691 
-0.676317 -0.695707 3.2364 
-0.668147 -0.808353 4.01968 
1.98723 -0.904919 4.2737 
1.98072 -0.913408 4.31446 
1.96533 -0.942514 4.45036 
0.529015 -3.42225 17.2154 
2.87505 -3.27115 16.0613 
0.429983 -3.51344 17.2379 
-0.40702 -1.00749 4.86103 
-1.28846 -3.09767 15.3687 
0.833997 -3.58752 17.3533 
-2.23463 -0.966467 4.92966 
-1.85091 -2.58774 12.7265 
-1.77833 -1.37413 6.78235 
-1.74143 -1.30939 6.46097 
-1.74095 -1.39038 6.85292 
-2.21456 -1.00426 4.97718 
-1.60188 -3.09892 14.7979 
0.836273 -3.7523 17.3129 
2.13906 -1.3676 5.94512 
-1.60738 -3.18356 14.7353 
0.534708 -3.80267 17.2273 
0.739994 -3.85228 17.3333 
2.0131 -1.12243 4.53439 
2.01045 -1.13299 4.57514 
-2.20342 -1.08577 4.96863 
1.97497 -4.04031 17.0933 
1.8015 -4.04509 17.1186 
-0.372622 -1.66086 7.47399 
-0.794714 -3.79974 16.0274 
-0.726276 -1.00393 3.48295 
-0.878836 -0.680931 2.25574 
-2.23811 -1.34351 5.72691 
3.70759 -4.48041 13.9796 
3.36329 -5.42012 16.9948 
3.36329 -5.42012 16.9948 
2.2956 -5.92831 18.7224 
3.25144 -25.6808 73.7581 
-0.697685 0.533107 -1.77623 
-0.697685 0.533107 -1.77623 
-2.01204 2.04687 5.80764 
-2.01204 2.04687 5.80764 
-1.40796 2.38688 6.63041 
-1.2024 2.38541 6.78529 
-2.21191 1.802 5.38246 
-0.709136 -0.476911 -1.49833 
0.648129 2.93073 8.12567 
-0.741925 -0.235635 -1.49316 
-0.255284 2.94638 8.34955 
-0.613823 -0.699174 -2.42487 
0.372623 0.613333 1.79344 
-0.48307 -0.448281 -2.7605 
-0.776208 -0.238344 -1.56959 
-1.71767 2.06345 6.24453 
-1.22702 2.26983 6.74916 
-2.07376 1.84071 5.6699 
-1.23447 2.253 6.75589 
-1.65556 2.05485 6.32254 
-1.65556 2.05485 6.32254 
-1.35803 2.17026 6.64156 
-1.1055 2.22398 6.85026 
1.42367 2.11323 6.11954 
-0.899771 2.48871 7.83208 
-1.81868 1.84759 6.08476 
1.77076 1.80734 5.28359 
1.92035 1.58948 4.61937 
3.22778 1.55834 6.98737 
2.41136 1.22812 5.22281 
1.3057 2.05242 6.26324 
1.70821 1.82548 5.47095 
1.45634 1.98561 6.0322 
1.669 1.85657 5.59702 
-2.07136 1.63776 5.65771 
-2.07136 1.63776 5.65771 
1.49336 1.93364 5.96415 
-0.964898 2.07401 6.90992 
-0.964898 2.07401 6.90992 
-2.08535 1.60597 5.61348 
-2.00759 1.65169 5.75664 
1.97957 1.31521 3.89298 
-0.769571 -0.249267 -1.43561 
-0.737923 -0.194905 -1.35726 
5.30044 1.85291 9.64848 
1.97507 1.32887 4.03628 
0.499134 2.41891 8.0289 
0.499134 2.41891 8.0289 
0.0504138 2.41869 8.12561 
0.0677478 3.21588 10.8611 
-1.23994 1.91709 6.70996 
-1.23994 1.91709 6.70996 
1.8365 1.59513 5.02939 
-0.268058 0.319326 1.01018 
-1.68252 1.7479 6.25414 
2.12387 0.786885 4.05575 
1.98147 1.23844 3.80383 
-1.10276 1.93856 6.80947 
-1.41 1.84243 6.56246 
-1.41 1.84243 6.56246 
-1.67594 1.73436 6.26877 
-0.840829 1.97417 6.96522 
-2.17775 1.44646 5.4051 
1.5212 1.7878 5.90266 
-1.94556 1.52791 5.85917 
-1.68686 1.60997 6.22126 
-0.726399 2.0535 7.68926 
-3.39048 1.78244 11.8891 
1.8425 1.45947 4.99459 
1.43783 1.72445 6.05868 
1.41593 1.73089 6.08693 
-1.83379 1.54175 6.0287 
-1.83379 1.54175 6.0287 
-2.21206 1.33413 5.32633 
-1.95479 1.47551 5.81893 
-1.76918 1.55511 6.12289 
-0.836568 0.0518836 2.07122 
-1.5996 0.85141 3.92396 
0.681953 2.17042 8.02566 
-1.76969 1.5387 6.13007 
-1.49989 1.63073 6.4556 
0.700875 2.14918 8.02905 
1.01602 2.08966 7.75332 
-1.75973 1.52035 6.12985 
-1.75973 1.52035 6.12985 
-0.164673 0.349165 1.56135 
-4.19976 7.71636 38.4022 
-1.74452 1.51213 6.14179 
-0.504255 2.06375 8.08798 
-3.86912 -9.05997 -35.3227 
-0.145785 2.1024 8.18012 
-1.91148 1.42489 5.88232 
-2.12468 1.60788 8.26612 
-0.335469 2.0781 8.18391 
-1.34835 1.62262 6.60368 
1.63039 1.53502 5.66596 
0.702307 2.07177 7.97755 
1.60917 1.51896 5.6925 
1.48761 1.87257 7.1406 
-1.93366 1.36332 5.85233 
-1.93366 1.36332 5.85233 
-0.180681 0.424284 3.07153 
1.97291 1.104 4.1114 
-3.88726 -9.18515 -38.1528 
1.97104 1.08013 4.08385 
-1.71677 1.39435 6.17261 
1.96548 1.09778 4.20821 
0.717819 1.88813 7.81439 
-1.93302 1.2935 5.8371 
-1.77922 1.35687 6.07913 
-1.60047 1.40587 6.30287 
1.76375 1.31311 5.25422 
-2.04303 1.22503 5.65857 
-2.04303 1.22503 5.65857 
-1.27121 1.47626 6.63467 
-1.27121 1.47626 6.63467 
1.52161 0.852735 3.46407 
-2.1335 1.15618 5.46236 
1.73572 1.29782 5.35335 
0.910883 1.81081 7.81893 
1.55325 1.38941 5.81651 
0.216248 0.334504 1.92751 
-0.340124 1.74064 7.79857 
-0.174454 0.813487 3.55605 
-0.266745 1.81808 8.13602 
-0.311777 1.81574 8.13353 
-1.21014 1.45419 6.69637 
-1.40364 0.21123 2.54905 
1.97458 1.00438 4.08424 
1.97458 1.00438 4.08424 
-0.0801933 0.79676 3.59145 
-0.179682 1.74903 8.08983 
0.0991079 1.67603 7.77687 
1.97269 0.961949 4.08822 
0.20045 1.58813 7.74411 
0.20045 1.58813 7.74411 
-2.10896 1.01406 5.4785 
-1.74578 1.14251 6.08291 
1.9737 0.89365 4.06348 
1.9737 0.89365 4.06348 
-1.21266 1.27413 6.65833 
-2.07533 1.01458 5.52435 
1.972 0.896529 4.11182 
2.71293 0.998086 5.64664 
-0.639763 -0.088121 -1.45184 
-2.10492 0.995144 5.47282 
1.72236 1.1331 5.40136 
1.87154 0.670406 3.71806 
1.75247 1.11094 5.28533 
-1.44764 1.2051 6.44331 
-1.44764 1.2051 6.44331 
1.97645 0.83235 3.84328 
-1.99594 1.03188 5.70575 
-1.12991 1.26276 6.72808 
-1.12991 1.26276 6.72808 
1.52976 1.19423 5.84378 
-1.82379 1.08595 5.9791 
-1.42086 1.192 6.47589 
1.94404 0.920889 4.38974 
-1.35987 1.1988 6.5382 
1.94261 0.927754 4.44182 
1.90581 0.965964 4.65133 
1.29126 0.676913 3.1526 
-1.42109 1.1702 6.46316 
-0.637549 1.33829 7.35643 
-0.637549 1.33829 7.35643 
-0.0727574 1.42028 7.76577 
1.18105 1.29416 6.86788 
1.18105 1.29416 6.86788 
1.18263 1.25985 6.87551 
0.521435 1.35169 7.63444 
-0.758067 1.25151 7.35055 
-0.212175 0.21652 1.37094 
56.4755 -25.0608 -369.203 
1.95133 0.819938 4.37009 
1.84277 0.912812 4.95315 
1.0427 0.411501 2.85296 
1.10508 0.441298 3.1307 
1.96845 0.763576 4.1894 
-0.502705 0.135307 1.17061 
1.30385 0.84703 3.59678 
1.5397 0.989268 5.81062 
1.5397 0.989268 5.81062 
1.71643 0.926227 5.40766 
-1.92551 0.855665 5.78334 
-1.92551 0.855665 5.78334 
-0.350947 0.0946718 0.849191 
-2.18483 0.765434 5.27798 
-1.36022 0.981498 6.48749 
-1.27299 0.997544 6.59188 
-1.4962 0.939375 6.36758 
-1.4615 0.940491 6.38996 
1.18101 1.08137 6.85066 
1.18101 1.08137 6.85066 
-0.75858 1.06266 7.3321 
0.813959 1.13371 7.51045 
0.890872 1.13003 7.47389 
0.850222 1.12915 7.48116 
0.781882 1.1387 7.5568 
0.709495 1.09209 7.25001 
-0.298223 1.13367 7.78751 
1.96645 0.680461 4.1959 
1.07709 1.00362 6.90627 
-1.82458 0.772768 5.93333 
0.400949 1.05048 7.64509 
1.16066 0.961365 6.82994 
1.79088 0.726535 5.15635 
0.458491 0.991951 7.55515 
1.84423 0.694068 4.93697 
1.576 0.783333 5.72566 
1.63462 0.765354 5.60695 
1.95183 0.605194 4.30169 
-1.34567 0.787481 6.49417 
-1.5866 0.744458 6.23985 
-1.90974 0.676128 5.78266 
-1.34078 0.7711 6.50722 
-1.55057 0.737476 6.29345 
-1.28376 0.775233 6.5611 
-1.59657 0.723814 6.235 
-1.63407 0.71605 6.17976 
-1.63407 0.71605 6.17976 
1.40829 0.837908 6.53109 
1.81628 0.663143 5.06039 
0.401296 0.861497 7.62221 
-0.369818 0.81107 7.71868 
1.97935 0.453625 3.8442 
-2.26624 0.461934 5.02059 
-0.389193 -0.0385258 0.838304 
1.97534 0.442708 3.92723 
1.97269 0.428703 3.90878 
1.92465 0.485007 4.52327 
1.7722 0.553514 5.24593 
-0.420958 0.723221 7.65361 
0.741605 0.718304 7.44583 
1.87731 0.490503 4.77527 
1.85362 0.499496 4.88713 
1.88282 0.479638 4.73225 
1.88282 0.479638 4.73225 
-1.72801 0.510042 6.00747 
-2.09341 0.445742 5.4064 
-0.701484 0.033116 -1.84723 
1.88143 0.470382 4.75487 
-0.746413 0.631701 7.23406 
-0.746413 0.631701 7.23406 
-0.746413 0.631701 7.23406 
-0.838155 0.628219 7.19001 
-1.77923 0.49691 5.97086 
-0.382629 0.0929187 0.982524 
-2.69185 0.0160987 5.32841 
0.116169 0.646831 6.77885 
0.752997 0.623732 7.44444 
-0.333559 0.61511 7.6587 
-0.0737925 0.238458 1.64427 
1.96908 0.376112 4.17176 
1.96908 0.376112 4.17176 
0.452961 0.616883 7.61542 
0.452961 0.616883 7.61542 
1.21468 0.559011 6.74302 
-0.291689 -0.293782 -2.63375 
0.144833 -0.467922 -4.26079 
1.81142 0.421329 5.08678 
1.81295 0.403627 5.06755 
-0.698065 0.504444 7.25591 
-0.843705 0.495845 7.20366 
-0.935423 0.487948 7.11538 
1.13581 0.503498 6.81428 
-1.74425 0.39041 5.98237 
-1.73579 0.379018 5.99631 
-1.73579 0.379018 5.99631 
0.804172 0.515475 7.42175 
-1.10267 0.454777 7.05883 
-0.281735 0.509318 7.6744 
1.11302 0.47357 6.83144 
0.841552 0.496397 7.38052 
0.841552 0.496397 7.38052 
0.752825 0.49977 7.44597 
0.691685 0.501779 7.48277 
-1.49484 0.0574875 2.69549 
1.45928 0.446859 6.44097 
0.900251 0.495046 7.33894 
-0.0803324 0.234288 3.55467 
-0.237133 0.492712 7.66569 
-0.237133 0.492712 7.66569 
-0.33643 0.489585 7.64911 
-0.400816 0.488556 7.63416 
-0.254108 0.218006 7.6892 
-2.14769 0.284177 5.27398 
-0.155363 0.200117 3.30209 
-0.166412 0.0960746 3.58796 
-1.97141 0.298027 5.61978 
-2.13873 0.269448 5.28923 
-2.13873 0.269448 5.28923 
-0.557454 0.393552 7.30175 
-1.94502 0.273411 5.6534 
-0.555915 -0.0922545 1.00514 
-2.14579 0.236756 5.25015 
-0.520025 0.363484 7.29633 
-2.16565 0.232013 5.20997 
-1.98036 0.251186 5.57239 
-0.841484 0.346749 7.19694 
1.95405 0.244749 4.3249 
-2.02986 0.239422 5.47619 
-0.40234 0.17112 1.40731 
-1.95376 0.243503 5.63182 
-0.890036 0.309329 7.17699 
-1.55238 0.261311 6.80695 
1.92424 0.211099 4.55906 
-0.831694 0.281403 7.32195 
0.681053 6.3344 31.6659 
1.25008 0.271872 6.86883 
-0.864565 0.246169 7.31057 
-2.10342 -0.0909876 4.14428 
-0.556267 -0.102354 1.0042 
-8.80434 -4.63352 -70.5594 
-8.80434 -4.63352 -70.5594 
0.670394 0.250443 7.47019 
-0.0805918 0.0634983 4.0665 
-0.420678 0.238546 7.59801 
-0.420678 0.238546 7.59801 
1.84113 0.176356 4.93923 
-0.736767 0.218622 7.31144 
-1.67273 0.156812 6.05983 
-0.83971 0.196395 7.29924 
-1.02381 0.171257 7.04523 
-0.55834 0.178686 7.27376 
1.01456 0.180782 6.92003 
2.15258 -3.91063 -25.91 
-0.281453 0.0874598 1.99352 
-0.990486 0.140941 7.03921 
1.03748 0.152254 6.88713 
-0.371677 0.0601911 1.07995 
-2.02218 0.0767554 5.5012 
0.745361 0.134774 7.40595 
-1.77183 0.0850374 5.91024 
-0.333716 0.126722 7.5981 
-1.62303 0.0846574 6.12305 
1.9163 0.0876428 4.60109 
1.9163 0.0876428 4.60109 
-1.70423 0.0682327 6.01278 
-1.83946 0.0585932 5.80698 
-2.15459 0.0439967 5.2076 
0.424523 -0.167236 13.1432 
1.57524 0.0804025 6.17088 
1.57524 0.0804025 6.17088 
-2.39211 0.393032 4.89042 
1.77715 0.0629577 5.19198 
1.76692 0.0627488 5.24271 
-2.10073 0.577913 5.37002 
-2.40519 -0.152632 4.43626 
0.104855 0.049073 8.05306 
1.97161 0.036215 4.06542 
-1.79448 0.0139985 5.86467 
0.794034 0.0408744 7.39819 
1.97213 0.030534 4.10852 
-0.716481 0.00602735 7.16815 
0.80028 0.0153706 7.38126 
0.165665 0.0102296 7.99482 
1.1457 0.0140638 6.77014 
-0.0835798 0.116306 3.53533 
-0.239155 -0.00370995 7.61747 
-0.239155 -0.00370995 7.61747 
-0.338339 -0.00272424 7.59747 
-0.401537 -0.00348904 7.58275 
-0.18956 -0.00394776 3.58057 
0.746449 -0.000701473 7.41034 
-7.87883 -2.59542 -78.7286 
0.686712 -0.000203581 7.44534 
0.896186 -0.000440876 7.3111 
0.837222 -0.00155756 7.34968 
0.837222 -0.00155756 7.34968 
-0.0752494 -0.00889425 7.81047 
-0.247501 0.0666921 2.08618 
-0.83899 -0.0192295 7.11305 
-1.80539 -0.0260302 5.85432 
-0.440899 -0.0274581 0.792061 
-0.746134 -0.0234519 7.16127 
-1.23391 0.00634785 -6.58341 
-0.259429 -0.0286449 7.59101 
-0.259429 -0.0286449 7.59101 
-8.2399 0.214933 -74.1352 
-0.158437 0.0912925 3.28341 
-0.158437 0.0912925 3.28341 
-1.4148 -0.0510158 6.85975 
-1.97232 -0.0498711 5.57243 
-1.78112 -0.0552649 5.8672 
-2.00717 -0.0660388 5.50048 
2.80392 -0.0323312 -19.2333 
-1.6166 -0.0724118 6.08813 
-0.672483 -0.0906692 7.18896 
1.50309 -0.0781496 6.28879 
-0.606163 -0.106206 7.21568 
-1.13977 -0.109763 6.90265 
1.48367 -0.103031 6.32923 
1.40991 -0.103125 6.42094 
1.93375 -0.0768761 4.52489 
1.97362 -0.0787792 4.10917 
-0.288671 -0.152414 7.58751 
-1.78603 -0.143077 5.863 
-0.424434 -0.179132 7.54532 
-0.424434 -0.179132 7.54532 
-1.86889 -0.145846 5.73153 
-1.42949 -0.182003 6.87767 
1.9511 -0.122958 4.40768 
-2.18286 0.336397 4.66682 
-1.94306 -0.167976 5.60585 
-1.43205 -0.226577 6.88026 
-1.95571 -0.197952 5.58914 
-2.04426 -0.199577 5.39827 
-1.66508 -0.223854 6.01696 
-0.12906 -0.0815607 1.99969 
-1.43123 -0.261196 6.99497 
-4.87587 -2.39895 -15.5467 
0.896922 1.39103 10.6787 
1.00772 -0.282593 7.30966 
-0.379857 -0.119626 0.823947 
-1.41431 -0.279417 7.00907 
-2.02046 0.0597146 3.61435 
0.126419 -0.680828 -4.75435 
-1.88443 -0.233643 5.69054 
-0.35692 0.35344 -3.92481 
-2.06947 -0.223306 5.33752 
-1.42713 -0.300547 7.01082 
-1.81817 -0.24924 5.78504 
-0.172805 -0.337864 7.80373 
-0.377707 -0.231509 1.44516 
-1.73472 -0.258295 5.89247 
-1.97709 -0.243983 5.52551 
-2.00482 -0.241065 5.47357 
-2.05997 -0.236358 5.32651 
-1.87752 -0.266443 5.72684 
-2.3847 -0.260688 4.38145 
1.8966 -0.2291 4.71052 
1.88214 -0.237049 4.8044 
1.80756 -0.255932 5.07301 
-0.818089 -0.427071 7.29561 
1.81958 -0.309382 5.08762 
-0.254237 -0.467584 7.87122 
-0.183252 -0.157637 1.0707 
-1.32122 -0.454836 7.45436 
0.305193 -0.528729 8.09135 
-1.32754 -0.488332 7.44221 
1.71477 -0.477357 6.90667 
-0.0645665 -0.557676 8.09547 
0.702183 -0.554709 7.93936 
0.702183 -0.554709 7.93936 
0.605032 -0.556861 7.98008 
1.96933 -0.224314 4.4325 
1.97889 -0.450572 6.24052 
0.79484 0.0171581 2.51887 
-5.81925 1.54292 -22.4517 
-1.60688 -0.507559 7.10117 
-0.906131 0.578744 -8.27361 
1.84132 -0.502627 6.59752 
1.52543 -0.544683 7.20291 
-1.96908 -0.404184 5.50912 
-1.19224 -0.561153 7.55357 
0.0387932 -0.368317 4.75113 
-0.989116 -0.585643 7.71167 
-1.98812 -0.409606 5.46184 
0.96063 -0.608161 7.79539 
1.50655 -0.572375 7.23959 
1.80129 -0.415709 5.14295 
-2.01819 -0.414692 5.39513 
-2.20117 -0.390338 5.00544 
1.87498 -0.420719 4.86044 
1.91391 -0.408506 4.63779 
1.99793 -0.349527 3.8875 
1.80526 -0.447293 5.08645 
1.95734 -0.39342 4.37636 
-2.05572 -0.442898 5.33275 
-2.63665 -1.46299 16.9293 
-1.98613 -0.474431 5.47849 
-0.577914 -0.701137 7.91894 
0.0522677 -0.43562 4.7461 
-0.0765152 -0.73125 8.12232 
-0.684388 -0.704125 7.89369 
-0.684388 -0.704125 7.89369 
-0.765268 -0.699841 7.85464 
-1.73622 -0.622908 6.89266 
-0.601265 -0.728179 7.92058 
-0.674061 -0.728916 7.90395 
-1.25516 -0.684438 7.47704 
0.0648931 -0.752856 8.06598 
0.0383743 -0.451722 4.74993 
-0.00843366 -0.754909 8.08103 
-0.0783059 -0.453526 4.77912 
0.665811 -0.75155 7.95844 
1.26357 -0.719557 7.52775 
1.16957 -0.730465 7.62884 
1.73356 -0.667291 6.83994 
-1.39069 -0.718238 7.32639 
-1.39069 -0.718238 7.32639 
-2.03944 -1.89424 19.4869 
2.22452 -2.49074 24.9441 
1.63237 -0.732319 7.02741 
-1.83776 -0.574367 5.71257 
-1.89181 -0.564937 5.62902 
-1.74919 -0.591041 5.85259 
-2.16065 -0.508378 5.03813 
-2.05349 -0.536885 5.28638 
-0.356655 0.0184923 0.912486 
-0.0637414 -0.847383 8.07889 
-2.03653 -0.546415 5.34536 
-2.03653 -0.546415 5.34536 
1.88186 -0.534559 4.81105 
-1.86405 -0.583944 5.65889 
-1.84895 -0.588439 5.68334 
-1.94745 -0.56912 5.51336 
-2.17509 -0.521106 5.05217 
1.89565 -0.53666 4.76151 
-1.03447 -0.169659 -3.035 
-2.06169 -0.554056 5.29318 
-0.224643 0.138633 1.28864 
-1.8608 -0.60289 5.66755 
-2.0391 -0.563421 5.32873 
-1.88838 -0.597188 5.61038 
-1.97704 -0.579675 5.4595 
-0.011685 0.305185 -2.92032 
-0.0979002 0.278255 -2.66517 
-2.16403 -0.570703 5.04854 
-2.00164 -0.626142 5.3948 
-0.364384 -0.0415458 0.978316 
-15.8465 4.23576 51.255 
-2.01409 -0.654009 5.37382 
-15.7689 3.50125 51.0284 
-0.122321 -1.05632 8.23976 
-1.1689 0.0282421 2.93678 
-2.10586 -0.655408 5.15622 
-1.87649 -0.731515 5.61301 
2.45796 -2.51501 18.3846 
2.0013 -0.577274 3.89338 
2.0013 -0.577274 3.89338 
-1.88491 -0.747536 5.60815 
1.91318 -0.68766 4.68771 
2.32196 0.627475 6.77864 
1.87667 -0.719135 4.85976 
1.87667 -0.719135 4.85976 
-0.739398 -0.191246 3.30334 
-1.51441 -1.19968 6.83441 
-2.02328 -0.787086 5.33945 
-0.877581 -0.270154 3.19721 
-2.11087 -0.814658 5.13131 
-2.11087 -0.814658 5.13131 
-1.71385 -1.11177 6.85992 
-1.88544 -1.78052 10.7687 
-2.16952 -0.811013 4.97874 
-0.412278 -0.175352 2.59653 
-0.373796 0.0149789 0.861687 
-0.38004 -0.0144583 0.877498 
1.9699 -0.801291 4.35813 
-1.89315 -0.924565 5.54456 
-0.740146 0.21904 -1.71284 
-0.339583 -0.0114448 1.17782 
1.97715 -0.806397 4.27278 
-0.369371 0.00298714 0.939639 
1.86408 -0.930754 4.95128 
-2.01612 -0.906175 5.32438 
1.81731 -3.10348 17.2538 
1.81731 -3.10348 17.2538 
1.40435 -3.12166 17.4099 
2.35512 -3.05757 16.8682 
2.04401 -3.12316 17.0054 
-1.11272 0.77533 -4.10108 
1.48841 -3.20358 17.3881 
-2.03901 -0.921522 5.27213 
-1.75423 -1.21232 6.79506 
-1.84681 -0.999325 5.62258 
-1.84681 -0.999325 5.62258 
-1.76855 -1.02742 5.75329 
-1.90515 -0.982692 5.52215 
-2.20035 -0.862887 4.8991 
-0.69905 -3.02174 16.3011 
-1.91134 -1.86886 10.1842 
-2.22568 -0.865949 4.85359 
-1.82425 -2.4205 12.9607 
-2.32637 -2.22626 12.822 
4.02486 29.8908 -140.574 
2.04882 -3.46923 17.1077 
2.04882 -3.46923 17.1077 
0.745497 -3.49128 17.3336 
0.745497 -3.49128 17.3336 
-2.29107 -0.909188 4.76749 
-0.540854 -3.327 16.4427 
-0.712306 -3.27348 16.2277 
-1.50644 -3.00891 14.9776 
-2.38916 2.78063 -13.7655 
-1.3171 2.27885 -11.3199 
-1.3171 2.27885 -11.3199 
1.80806 -3.56065 17.2281 
1.80806 -3.56065 17.2281 
-2.21099 -0.982756 4.99216 
-1.90983 -2.11264 10.3229 
0.694432 -3.69631 17.2339 
2.00433 -1.42904 6.36068 
1.91584 -1.47856 6.60195 
-0.755326 0.506736 -2.78874 
-1.63779 -3.09275 14.7063 
-1.63779 -3.09275 14.7063 
1.95715 -1.46047 6.50887 
0.432048 -3.69153 17.1681 
-0.892448 -2.01061 8.91347 
-0.546916 -1.147 5.44749 
0.105777 -3.65564 17.0173 
-0.723193 -3.46628 16.2543 
-0.723193 -3.46628 16.2543 
-1.17831 -1.69555 7.90115 
2.80229 -3.57174 16.2091 
-0.539979 -3.51249 16.4141 
-0.539979 -3.51249 16.4141 
-1.27797 -3.26232 15.3531 
-0.246128 -0.43374 2.9151 
1.80502 -3.77145 17.2378 
1.14851 -3.79637 17.436 
1.99773 -3.76434 17.1489 
-1.32253 2.35708 -11.3747 
-1.88201 -2.25734 10.66 
-1.34233 -3.29467 15.2542 
-1.34233 -3.29467 15.2542 
2.64148 -3.70095 16.5012 
2.00517 -1.15171 4.65066 
-2.30176 -1.02792 4.69559 
-0.710093 -3.73031 16.1543 
-0.710093 -3.73031 16.1543 
-1.5151 -3.409 14.819 
0.75839 -4.09407 17.3044 
-1.5662 -3.45365 14.7448 
2.87256 -3.93171 16.0884 
2.87256 -3.93171 16.0884 
2.06401 -4.12536 17.0351 
-0.453167 -3.90154 16.4371 
-0.453167 -3.90154 16.4371 
-0.180335 -4.02799 16.6918 
-0.180335 -4.02799 16.6918 
0.554088 -0.455376 1.94445 
1.10619 -0.0598435 4.73151 
-0.53445 -0.142515 -2.30171 
-1.67467 -2.13423 8.41023 
-0.684831 -0.937393 3.49853 
-0.666906 -0.996283 3.69141 
-0.659781 -1.01968 3.76808 
-8.31736 3.31909 -17.6402 
-8.31736 3.31909 -17.6402 
-0.638173 -1.09128 3.99991 
-0.230107 -0.104977 1.40875 
-0.630471 -1.11705 4.08229 
-0.251431 -0.000199227 1.57344 
-1.9384 -3.98254 14.8509 
-0.325838 -4.85424 17.7531 
3.38923 -4.79786 16.9546 
3.20246 -4.89311 17.3449 
0.687298 -5.11718 18.5484 
-0.856654 -5.16157 16.9488 
-0.0845784 -3.35466 10.3916 
-1.50398 2.22757 6.50788 
14.1664 56.1204 157.885 
1.66651 1.02571 3.87474 
-0.632473 -0.74984 -2.63912 
-1.1817 -0.172719 -2.26881 
0.470202 0.571994 3.83006 
-1.76824 2.05859 6.1747 
-2.02312 1.89939 5.77685 
-0.666702 -0.588427 -1.6906 
-0.651955 -0.152473 -1.67428 
-1.2927 2.26787 6.70771 
-0.608311 -0.0805287 -1.27249 
-2.17119 1.76578 5.46233 
-1.82607 1.99925 6.08353 
-2.01678 1.87926 5.77416 
-2.01678 1.87926 5.77416 
-0.311782 0.226165 1.07929 
1.94838 1.53282 4.37187 
-2.00546 1.73186 5.78467 
1.91142 1.61321 4.69441 
1.45532 2.01325 6.04364 
-1.07442 2.09982 6.84585 
-1.07442 2.09982 6.84585 
-2.02243 1.67971 5.74197 
-2.05326 1.67221 5.72721 
-1.5343 1.91505 6.43801 
-1.5343 1.91505 6.43801 
-0.284616 0.284015 1.2228 
-1.73929 1.82334 6.18443 
-1.79728 1.02994 5.48302 
-2.03292 1.64804 5.70819 
-2.19913 1.53433 5.3662 
-2.19913 1.53433 5.3662 
-0.964892 2.07441 6.91129 
-0.964892 2.07441 6.91129 
-2.1536 1.54686 5.44404 
-0.253673 0.747096 2.26742 
1.96238 1.43407 4.30377 
2.00219 0.774184 3.89697 
1.50869 1.88755 5.92997 
1.96623 1.37766 4.1724 
0.284164 2.42122 8.09109 
-13.1783 15.2686 51.3501 
-1.62305 1.77449 6.33347 
-1.89732 1.6456 5.93726 
-1.10278 1.93921 6.81111 
1.97847 1.26116 3.88895 
1.91491 1.23295 3.80613 
1.91491 1.23295 3.80613 
0.288462 2.37726 8.07381 
-0.200741 0.257705 1.16141 
1.97508 1.26765 3.97949 
-0.569554 -0.111436 -2.16545 
1.86621 1.45545 4.87261 
-1.8584 1.5372 5.9882 
-2.19237 1.35074 5.36621 
2.71187 1.20974 5.23862 
1.97721 1.1547 3.83047 
-0.586526 -0.287228 -2.07664 
-1.78736 1.55441 6.07942 
1.84568 1.43198 4.96159 
-1.98664 1.45058 5.78168 
-1.98664 1.45058 5.78168 
0.681653 2.18199 8.02475 
-1.94223 1.46808 5.86097 
-1.94223 1.46808 5.86097 
0.880909 2.12197 7.91669 
0.794493 2.10746 7.88612 
1.93402 1.27404 4.46954 
-1.443 1.62599 6.5078 
-1.443 1.62599 6.5078 
-0.670704 -0.222551 -1.65175 
-0.321317 2.1178 8.20952 
0.684349 2.09694 7.96031 
-1.40374 1.62777 6.54605 
-1.63844 1.54612 6.27409 
1.96019 1.1917 4.19924 
-0.723715 -0.384405 -1.98271 
1.83064 1.40012 5.03948 
1.96255 1.17665 4.1487 
-0.574281 -0.142233 -1.87305 
1.6769 1.51404 5.54116 
-1.34971 1.62195 6.60423 
-1.29522 1.61328 6.62319 
0.820286 2.02139 7.87095 
-0.102888 0.91377 3.58951 
-1.05746 1.85305 7.7039 
-0.272801 1.94528 8.12909 
1.9736 1.08134 4.08736 
0.907823 1.88879 7.73459 
-1.63803 1.42287 6.27575 
-1.63803 1.42287 6.27575 
-1.91023 1.30253 5.86214 
-1.95482 1.28553 5.82118 
-0.266056 0.264341 0.96429 
1.97752 1.0003 3.87495 
-0.320977 -0.47077 -2.60522 
-0.630334 0.14416 1.85108 
-2.01354 1.23568 5.70822 
1.73215 1.31814 5.36738 
0.205556 0.00637952 1.73655 
0.852883 1.83925 7.85116 
0.946718 1.79393 7.78028 
-0.0981828 0.82523 3.60664 
0.461787 1.71455 7.69855 
0.0627112 1.71264 7.8005 
0.0627112 1.71264 7.8005 
0.0627112 1.71264 7.8005 
-2.07359 1.13165 5.56278 
-0.281212 -1.40691 -5.22681 
0.529312 -1.14743 -7.50635 
1.97538 0.845527 3.88553 
1.97538 0.845527 3.88553 
2.51799 1.02715 5.2109 
1.91366 0.980704 4.62119 
1.9398 0.946635 4.45715 
-1.19402 1.24341 6.66555 
1.57706 1.17843 5.75465 
1.50916 1.18152 5.88999 
0.321028 1.47522 7.70686 
0.204125 1.48005 7.75681 
0.429961 1.43283 7.66929 
0.207091 1.43797 7.73405 
0.207091 1.43797 7.73405 
1.90838 0.936093 4.65636 
1.06138 1.14902 6.85048 
0.0887921 1.43451 7.7576 
0.526815 1.79837 9.78278 
0.526815 1.79837 9.78278 
0.106724 1.39653 7.74391 
0.106724 1.39653 7.74391 
-0.00516256 1.35389 7.75749 
-0.383621 0.201721 0.810688 
0.019272 1.25398 7.13394 
0.019272 1.25398 7.13394 
-1.67915 0.985154 6.15714 
1.97561 0.720009 3.86598 
1.87286 0.858161 4.80031 
1.87411 0.841133 4.81538 
0.579145 1.24145 7.59323 
-0.0672841 1.23853 7.74828 
1.90864 0.816147 4.66398 
1.71384 0.925036 5.40251 
0.547221 1.23516 7.6126 
1.88342 0.752364 4.30917 
-2.55156 0.643875 6.79968 
-1.53434 0.563647 3.83247 
-2.10976 0.771096 5.43289 
-1.60561 0.880596 4.03435 
-2.07956 0.771958 5.47798 
0.890696 1.13031 7.47319 
1.07494 1.00201 6.89912 
1.51691 0.826281 5.86267 
-2.10453 0.632145 5.43288 
-1.28725 0.795472 6.56204 
-1.97222 0.664808 5.67055 
1.93001 0.650368 5.31687 
-1.46018 0.758287 6.37747 
-1.9523 0.662221 5.70255 
1.9519 0.588353 4.2874 
-2.10351 0.61249 5.43489 
-0.841892 0.197718 1.57915 
-1.96617 0.587107 5.68243 
-0.798808 -0.336763 -1.87139 
1.92773 0.52583 4.50235 
0.74985 0.799423 7.51453 
-2.2667 0.462014 5.02244 
1.97564 0.436166 3.81047 
-0.652064 -0.194186 -1.25792 
-1.81013 0.530112 5.92288 
0.675029 0.736626 7.51206 
-0.338815 0.723666 7.67454 
-0.723367 -0.185679 -1.49592 
1.82566 0.516328 5.00568 
0.247551 0.725313 7.60728 
1.97657 0.405642 3.81951 
2.12069 -0.412656 4.06693 
1.92488 0.468579 4.50222 
1.87208 0.496703 4.82017 
3.18237 0.93981 7.72445 
1.30001 0.540561 3.16331 
-8.51143 -0.129858 -17.0155 
-2.05378 0.461415 5.49376 
1.88957 0.480478 4.74331 
-1.92224 0.47757 5.72575 
-0.527047 0.645424 7.33624 
-0.746387 0.631406 7.23472 
1.90028 0.460795 4.71918 
1.25191 0.624703 6.6935 
1.25191 0.624703 6.6935 
1.17034 0.630064 6.7735 
-1.93502 0.456827 5.71967 
-0.234185 0.612637 7.67008 
-2.13991 0.377198 5.30308 
-1.59091 0.520575 7.03436 
-1.74492 0.436324 6.00259 
1.87827 0.406994 4.7402 
1.96291 0.365173 4.25175 
1.96291 0.365173 4.25175 
1.76862 0.427787 5.2429 
1.76862 0.427787 5.2429 
1.76932 0.333552 8.75021 
1.25574 0.493107 6.68287 
1.16962 0.500046 6.76563 
-1.77494 0.378877 5.95769 
-0.973629 0.453777 7.09135 
-2.14148 0.311238 5.2815 
0.72193 0.494306 7.46209 
0.872127 0.489154 7.35621 
-0.203765 0.486379 7.67046 
-0.369304 0.479324 7.63774 
-1.96355 0.280138 5.61881 
-2.13154 0.250002 5.29422 
1.0184 0.384308 6.92308 
-2.08541 0.247452 5.40107 
-2.08541 0.247452 5.40107 
-1.96219 0.259236 5.62191 
-2.16642 0.232432 5.2134 
-0.779166 0.354753 7.22118 
-1.78517 1.24635 6.6556 
3.11921 0.552191 6.90892 
1.9557 0.244951 4.3273 
-1.69213 0.262854 6.05929 
-0.373016 0.244272 1.32184 
-1.97173 0.238856 5.61384 
1.1476 0.337719 6.83564 
-0.156403 0.164462 3.579 
-0.156403 0.164462 3.579 
-1.06166 0.267333 6.99929 
-1.06166 0.267333 6.99929 
-1.2381 -0.276538 -6.25878 
1.3118 0.27397 6.62941 
1.82502 0.192981 4.99329 
1.31268 0.212359 6.61405 
0.415102 0.233345 7.69534 
1.09227 0.179235 6.66479 
-1.02489 0.170821 7.03779 
1.4798 0.174677 6.34218 
1.40342 0.177345 6.47314 
0.162747 0.186335 8.01795 
-1.66721 0.114169 6.05855 
-1.66721 0.114169 6.05855 
-0.391453 0.00824197 0.883647 
1.37276 0.148424 6.49779 
1.37276 0.148424 6.49779 
-1.01968 -0.218018 -4.83664 
0.150015 0.157638 8.04569 
-0.235247 0.126691 7.61153 
1.80204 0.100673 5.14413 
-2.00734 0.0626343 5.50473 
-1.40155 0.584696 3.46843 
-1.90452 -1.06014 10.3728 
-1.26833 0.0623001 6.82912 
0.227339 0.0871238 8.16759 
0.227339 0.0871238 8.16759 
-0.393773 0.0992045 0.965515 
1.8596 0.0586461 4.87755 
-1.95794 0.0306049 5.60246 
-1.977 0.0317506 5.57602 
-1.977 0.0317506 5.57602 
-0.00129563 0.064558 7.85008 
-2.14306 0.014731 5.22589 
-2.14306 0.014731 5.22589 
0.0228345 0.0373466 7.83876 
-2.13015 0.00639655 5.24942 
-2.40616 -0.16699 4.46092 
1.83377 0.0250376 5.00689 
1.83377 0.0250376 5.00689 
-0.868953 0.0117027 7.09377 
-0.168792 0.0665838 1.36749 
0.582294 0.0182215 7.49001 
-1.9579 -0.0071326 5.59547 
-2.14226 -0.0111269 5.22534 
-2.14226 -0.0111269 5.22534 
1.27355 0.0134772 6.63309 
-1.94606 -0.0139825 5.62153 
-0.207534 -0.0108874 7.61945 
-0.369784 -0.0110729 7.58849 
0.86787 -0.0091729 7.3327 
0.715566 -0.00923716 7.42971 
0.40969 -0.0203139 7.85412 
-0.0477038 -0.0463372 7.83936 
0.381294 -0.0488295 7.81461 
-1.43123 -0.0774753 6.88449 
-1.68481 -0.0872141 5.99962 
1.11234 -0.0960569 6.81279 
1.92758 -0.0785791 4.57544 
-0.135348 -0.0742355 3.55905 
0.79251 -0.14626 7.37149 
0.79251 -0.14626 7.37149 
-3.65101 1.803 10.9615 
-3.8231 -0.558902 11.6302 
1.91627 -0.0945903 4.62232 
-2.64284 -0.260079 5.21646 
1.91539 -0.113115 4.64717 
-1.88161 -0.155088 5.71457 
1.9532 -0.122157 4.41084 
-1.75421 -0.193782 5.90505 
-1.63247 -0.202336 6.06777 
-1.63247 -0.202336 6.06777 
1.79078 -0.177306 5.1673 
1.79078 -0.177306 5.1673 
1.89879 -0.164557 4.73028 
1.85622 -0.221505 5.93067 
1.81239 -0.195743 5.11366 
-2.06115 -0.208877 5.35618 
1.95621 -0.189007 4.35662 
1.84237 -0.225429 4.95281 
-1.87763 -0.267287 5.72776 
1.89775 -0.229158 4.7124 
-2.11678 -0.266687 5.23459 
-2.11678 -0.266687 5.23459 
-0.25571 -0.465447 7.85611 
1.90037 -0.290559 4.672 
1.4812 -0.154622 3.78644 
2.40667 -0.249319 5.08273 
0.327177 -0.553281 8.08882 
-60.964 44.4519 340.522 
-1.75006 -0.404922 5.85996 
-1.75006 -0.404922 5.85996 
1.92169 -0.465393 6.41526 
-1.41462 -0.515011 7.33843 
-1.46092 -0.523438 7.25047 
-1.50249 -0.517705 7.22168 
-0.431397 0.00255505 0.927707 
2.51246 -1.99224 26.6113 
0.0720964 -0.616651 8.12683 
2.44882 -1.96022 26.1282 
-1.55388 -0.541113 7.16738 
1.87776 -0.530756 6.53372 
1.47791 -0.579607 7.26756 
1.80528 -0.428855 5.0932 
-1.01514 -0.612313 7.66447 
-1.97401 -0.453618 5.49487 
2.01714 -0.555839 6.13015 
-1.96189 -0.468871 5.51553 
1.97588 -0.402159 4.23883 
-0.728195 -0.705572 7.87952 
-1.27488 0.695407 -7.94457 
1.88441 -0.471238 4.8497 
-1.93154 -1.77484 19.4647 
-1.35349 -0.67922 7.38763 
1.66659 -0.681123 6.99145 
-1.41718 -0.55406 -4.17232 
-2.30055 -0.409329 7.15949 
-0.342271 -0.0724562 1.01703 
-0.353457 -0.0119377 1.04659 
1.87987 -0.742467 6.5341 
-0.37085 -0.123059 1.14459 
0.288104 -0.131014 -4.54185 
-0.0617377 -0.2961 -2.92006 
-1.6338 0.0578306 3.49298 
1.97512 -0.525271 4.31159 
-2.16659 -0.630941 5.02002 
-1.9077 -0.719352 5.55524 
1.84131 -0.7149 5.03952 
2.43313 -2.49953 18.2521 
-0.345522 -0.111081 1.0762 
-1.86204 -0.749924 5.63311 
1.94476 -0.664004 4.51634 
1.94476 -0.664004 4.51634 
1.89478 -0.712976 4.76978 
1.90822 -0.703462 4.67537 
1.99899 -0.593087 3.82534 
1.98759 -0.630728 4.10783 
1.98759 -0.630728 4.10783 
-1.89883 -0.819304 5.56974 
-1.89883 -0.819304 5.56974 
-0.347773 -0.0482529 1.09252 
-1.83948 -0.919099 5.64803 
-1.86182 -0.91461 5.61735 
-1.89754 -0.906476 5.5415 
-1.98813 -0.872598 5.36803 
-0.401859 0.086994 1.25943 
-0.376754 -0.157578 1.01415 
-2.0965 -0.852278 5.13144 
1.95145 -0.852571 4.5091 
-2.02513 -0.9003 5.28455 
-1.76454 -0.997098 5.74908 
2.29071 -3.17172 16.9936 
-1.50467 2.02176 -11.1708 
2.0047 -0.870677 4.10501 
1.91989 -1.34773 6.5076 
1.87543 -1.36464 6.60325 
1.87543 -1.36464 6.60325 
-2.00256 -1.07445 5.48086 
-2.00018 -1.07225 5.4743 
-0.228637 -0.0145125 1.54898 
2.0777 -1.34162 6.02924 
1.964 -1.41773 6.41865 
1.964 -1.41773 6.41865 
2.00433 -1.42908 6.36068 
1.95418 -1.10701 4.8364 
2.56247 -3.65866 16.5969 
-0.785351 2.51582 -11.8922 
0.334126 -0.762296 5.15265 
-1.60477 -3.15002 14.7681 
0.2058 -3.74446 17.0947 
-0.612497 -0.0585841 1.21046 
-0.479368 0.193911 -1.78026 
-0.464496 -0.651833 2.99966 
-0.712329 -0.42695 4.43683 
2.85415 -2.99942 12.4005 
2.85415 -2.99942 12.4005 
-1.51577 -3.41314 14.838 
-0.565283 -0.1924 1.05778 
1.88154 -4.19576 17.0786 
-0.750104 -0.996262 3.93195 
-0.750104 -0.996262 3.93195 
-0.578447 -1.00297 3.84192 
-0.614963 -1.10075 4.22226 
-0.76242 -1.35231 5.23319 
-0.649348 -0.920855 3.41978 
-0.755569 -1.39358 5.37775 
-0.867761 -1.59304 6.17534 
3.13659 -4.21804 15.886 
3.13659 -4.21804 15.886 
-0.29293 -4.02689 15.484 
1.29717 17.4943 -68.3334 
-4.1977 -24.382 95.1533 
-0.340443 -1.57989 5.99381 
-0.340443 -1.57989 5.99381 
-0.453668 -1.5708 5.97472 
-1.79229 -6.04621 23.5679 
-0.641852 -2.04583 7.85067 
-1.27776 -4.01931 15.6174 
-1.51004 -3.89339 15.1676 
-1.51004 -3.89339 15.1676 
-1.79359 -3.69787 14.4804 
-5.2143 -9.50138 41.9187 
0.557488 -1.40388 5.23028 
0.557488 -1.40388 5.23028 
1.72168 -4.68263 17.6838 
1.72168 -4.68263 17.6838 
0.796728 -2.28963 8.55324 
-1.96839 5.4895 -21.1649 
1.06662 -4.6608 17.702 
1.06662 -4.6608 17.702 
0.953897 -4.66228 17.7345 
0.953897 -4.66228 17.7345 
0.615256 -4.62375 17.6424 
0.615256 -4.62375 17.6424 
0.0751266 -3.0809 11.7469 
0.949422 40.6249 -157.952 
-0.643231 -4.27962 16.5152 
-0.643231 -4.27962 16.5152 
-4.59433 7.46476 -28.3645 
-4.59433 7.46476 -28.3645 
2.58342 -4.55914 17.0497 
58.0953 -101.487 383.646 
-0.702183 -0.0851024 -1.47404 
-0.622417 -1.14365 4.16873 
-2.65023 -4.83863 18.7166 
1.10848 -5.18029 18.7111 
-0.0889762 -8.13382 25.7027 
0.557833 -7.44857 23.173 
0.288271 -6.16316 19.1635 
0.288271 -6.16316 19.1635 
0.140596 -0.645682 -4.6369 
0.152879 0.550653 1.51567 
-0.734525 -0.394575 -1.82043 
0.519626 2.91513 8.16785 
-0.175293 -0.807928 -3.01681 
0.101369 2.91772 8.25149 
-0.343492 2.94792 8.5624 
-0.218061 0.244286 6.40707 
1.18069 2.79966 7.96418 
-1.70417 2.02044 6.25926 
-0.695551 2.66996 8.12345 
-0.738205 2.65332 8.07836 
1.40661 2.13364 6.13163 
-1.09885 2.19098 6.84885 
-1.83115 1.86481 6.08179 
-1.83115 1.86481 6.08179 
1.35333 2.04012 6.17827 
1.35333 2.04012 6.17827 
1.40881 2.01131 6.10633 
1.27537 2.06709 6.32739 
1.51573 1.94558 5.9078 
-1.65513 1.86915 6.29093 
-1.87077 1.76182 6.00385 
-1.80117 1.78163 6.07241 
-0.475762 0.0626633 1.02641 
-2.03346 1.62655 5.71958 
-0.973786 0.629701 2.06499 
1.97786 1.28714 3.91548 
1.97786 1.28714 3.91548 
-1.74762 1.72497 6.16686 
-1.74762 1.72497 6.16686 
-1.16095 1.92879 6.76517 
0.74359 2.35621 7.88923 
0.506765 2.37043 7.99373 
0.0794796 3.1274 10.7255 
-0.18519 2.3582 8.09608 
-1.96967 0.787491 6.81718 
-1.35056 1.82912 6.6011 
0.980835 2.25182 7.75643 
-0.452765 2.25527 8.08525 
-0.658009 -0.141139 -2.04758 
1.71362 1.56273 5.40691 
1.96966 1.22343 4.122 
-1.80181 1.51223 6.06647 
-1.80181 1.51223 6.06647 
-3.8484 -9.37746 -36.0384 
-1.71407 1.52288 6.17373 
-0.353459 2.10949 8.18223 
-0.353459 2.10949 8.18223 
3.56474 2.97774 10.9959 
1.69015 1.49991 5.48408 
-1.31385 1.63332 6.60731 
1.48172 1.61189 5.98056 
0.85959 2.04605 7.89338 
1.971 1.14374 4.09427 
1.73748 1.44562 5.35681 
0.708626 2.0302 7.94945 
0.708626 2.0302 7.94945 
-0.333118 2.03209 8.15672 
0.946149 1.9973 7.7816 
-1.01643 1.85918 7.71065 
1.45108 1.81493 7.03475 
-0.0799231 0.885093 3.56514 
-1.65589 1.43874 6.25754 
0.816126 0.629857 4.02671 
0.810392 1.9068 7.81843 
-0.251682 1.90873 8.09541 
-0.36609 1.89823 8.07556 
-1.91114 1.29633 5.9281 
-2.17044 1.15339 5.37947 
-2.17044 1.15339 5.37947 
-0.223527 1.86093 8.07268 
-1.83494 1.29877 5.96962 
-1.7612 1.09 5.06444 
-0.353372 0.20315 0.973096 
-0.184354 1.77384 7.97495 
-2.07216 1.0945 5.55902 
1.68107 1.22 5.52792 
-0.086166 0.736131 3.58538 
-1.20593 1.30118 6.66922 
1.89395 1.00975 4.73571 
1.91687 0.956916 4.62481 
1.57479 1.14731 5.73338 
-1.36016 1.16848 6.52455 
0.601294 1.42592 7.61338 
0.709282 1.96576 10.9537 
0.494543 1.32288 7.62298 
1.77833 0.710249 3.95102 
2.03557 0.738054 4.61923 
-3.01247 1.10886 6.33092 
-1.33888 1.00772 6.52567 
-1.33888 1.00772 6.52567 
-1.33888 1.00772 6.52567 
-0.0672398 1.2369 7.74871 
-1.82777 0.884852 5.93302 
-0.287122 0.162487 0.93042 
-2.09205 0.789871 5.46808 
1.01201 1.08353 7.57149 
-0.112685 1.1056 7.99321 
1.54892 0.842295 5.8044 
1.54892 0.842295 5.8044 
0.182794 1.05183 7.69275 
-1.81003 0.72217 5.94951 
1.67684 0.765257 5.51071 
1.80124 0.688951 5.08846 
-0.888446 -0.420537 -2.05698 
1.93774 0.611884 4.47176 
-2.15057 0.59965 5.33117 
1.94698 0.599903 4.40233 
-1.93819 0.648808 5.74015 
0.731968 0.830693 7.51448 
1.71396 0.591541 4.83562 
-0.375069 0.72873 7.67176 
1.91572 0.476209 4.57652 
1.91572 0.476209 4.57652 
-1.99029 0.484575 5.62548 
1.90278 0.478851 4.69441 
1.95334 0.436902 4.31315 
1.95334 0.436902 4.31315 
-1.8535 0.49177 5.83814 
-2.01102 0.451761 5.56836 
1.90327 0.453354 4.66792 
1.00048 0.630747 6.97025 
-2.6947 -0.00292299 5.36315 
-0.787903 0.526865 7.22072 
1.84162 0.452584 6.10954 
-0.450268 0.0790126 0.841346 
-1.73357 0.327996 6.01213 
1.96037 0.282173 4.21193 
-2.1101 0.24883 5.34762 
1.24452 0.364745 6.7361 
-2.06571 0.244712 5.43827 
-0.724921 0.32833 7.25293 
-0.724921 0.32833 7.25293 
0.838378 0.350039 7.39479 
0.754974 0.350716 7.4394 
0.754974 0.350716 7.4394 
-0.113871 0.163714 3.56733 
-0.113871 0.163714 3.56733 
-0.692839 0.269102 7.23522 
1.92278 0.186691 4.5688 
1.91253 0.173398 4.6069 
-8.45937 -2.19824 -67.8556 
0.912164 0.240988 7.31742 
-0.159616 0.235917 7.65077 
-0.159616 0.235917 7.65077 
-0.335776 0.226366 7.60295 
-0.157688 0.108019 3.56973 
-2.66596 -0.133418 5.27947 
-0.686315 0.198874 7.20679 
0.223484 0.214204 8.06721 
0.237953 0.335076 2.09685 
1.13972 0.155225 6.81436 
0.236345 0.171203 8.23188 
-2.12849 0.0827421 5.28301 
-2.22361 0.0638566 5.04438 
-0.83504 0.114297 7.17279 
0.84222 0.127762 7.36371 
-2.13822 0.0523284 5.23532 
1.81311 0.0848648 5.06831 
1.78854 0.0845185 5.16595 
1.83588 0.0797449 5.02535 
1.83588 0.0797449 5.02535 
-1.49517 -0.0635055 3.48678 
-0.446173 0.041416 1.01625 
-1.72014 -0.223706 4.4973 
-2.68733 -0.267814 5.30907 
0.147654 0.0551386 8.07818 
-0.842099 0.112185 1.56844 
0.365129 -0.0179763 7.85939 
0.592635 -0.02182 7.45705 
-1.53789 -0.0525076 6.75519 
-0.346646 0.0753305 1.23002 
-1.64947 -0.0660355 6.05515 
1.0175 -0.066074 6.92446 
-0.563427 -0.0746295 7.25089 
-1.43866 -0.106504 6.89392 
-0.289004 -0.14174 7.5963 
-0.248394 -0.14706 7.60579 
-0.33623 -0.147016 7.58675 
-0.33623 -0.147016 7.58675 
0.832778 -0.141972 7.35109 
1.88914 -0.0931812 4.7552 
-7.44375 1.35425 -73.5729 
-1.75177 -0.149877 5.91606 
-1.78206 -0.163268 5.86806 
1.85066 -0.190657 5.95542 
-1.90119 -0.209897 5.68855 
-2.10123 -0.197337 5.29216 
-1.8458 -0.229798 5.74954 
-1.8458 -0.229798 5.74954 
-1.75394 -0.239814 5.86693 
-2.08606 -0.218718 5.30663 
1.82423 -0.214679 5.06323 
-0.494012 0.0923751 0.965707 
-6.34878 0.760494 -19.5029 
-1.40481 -0.320397 7.05042 
-0.841767 0.0696761 1.56182 
-2.38388 -0.276916 4.40057 
1.80672 -0.277608 5.11634 
0.782663 -0.455144 7.687 
0.782663 -0.455144 7.687 
-1.46856 -0.496094 7.2882 
1.80062 -0.485726 6.70302 
1.69658 -0.497334 6.92284 
0.347068 -0.592058 8.06591 
-0.825963 -0.565666 7.83803 
0.0357218 -0.591217 8.06187 
-0.138195 -0.256215 3.37435 
1.76556 -0.517132 6.78555 
-0.405843 -0.612069 8.02456 
-1.02314 -0.583279 7.68374 
-2.61434 -0.385814 5.13956 
1.99422 -0.342089 3.84393 
-1.30757 -0.657527 7.43304 
-1.97419 -0.490725 5.48694 
-1.83366 -0.550044 5.7155 
-0.391029 0.0456194 0.83653 
-2.00837 -0.553908 5.42845 
-2.10124 -0.541467 5.20629 
-1.63617 0.0655151 3.50442 
-0.1071 0.300746 2.68205 
-1.99294 -0.578493 5.40573 
0.835963 -0.948836 8.10634 
0.235894 -0.971953 8.29153 
-1.87002 -0.81342 6.73029 
-2.00335 -0.665113 5.38818 
-2.00335 -0.665113 5.38818 
17.0843 -2.70534 -66.3536 
-1.82392 -0.87504 6.74744 
2.08899 -2.56183 18.6211 
1.74662 -2.27796 16.5583 
0.336007 -0.900188 6.46392 
-2.25418 -2.40793 16.1246 
-0.155584 0.0858561 1.14637 
-1.95665 -2.27132 14.9185 
-2.17801 -0.780886 4.97154 
-1.76268 -0.945457 5.7495 
-1.85425 -0.93463 5.5865 
1.94198 -0.874568 4.59451 
-2.04226 -0.924968 5.27714 
-2.07715 -0.116872 4.29584 
-1.84261 -2.3646 12.8514 
2.00844 -0.821097 3.89034 
2.00637 -0.846726 4.00758 
1.84954 -1.05445 5.04277 
-2.21816 -0.984769 4.96635 
-0.404698 -0.125397 0.877477 
-1.89334 -2.20349 10.5969 
-0.56515 0.0671271 -2.60876 
-2.30098 -0.978034 4.73173 
-1.95039 -2.07983 9.79254 
1.97822 -1.11519 4.7442 
1.97822 -1.11519 4.7442 
1.10981 -0.986972 4.12757 
2.335 -5.08128 18.1921 
1.72522 -5.17236 18.6157 
0.483445 -5.05952 18.3895 
0.355289 -5.03311 18.314 
3.08883 -4.89477 17.3832 
-0.476119 -0.834108 -5.55248 
-0.592845 -0.330294 -7.4588 
0.194838 2.92735 8.2459 
-0.0205011 2.59297 7.33883 
-0.128766 2.84481 8.50046 
-0.359576 0.658118 3.17421 
-0.845671 2.2523 7.31318 
1.67772 1.83864 5.55271 
3.62126 3.17781 9.57966 
0.42563 2.38562 8.0333 
0.373093 2.39233 8.06977 
-0.0251533 2.38382 8.12147 
-0.103371 2.38195 8.13519 
-0.287815 2.35698 8.08911 
1.84076 1.50284 4.99971 
1.84076 1.50284 4.99971 
1.98151 1.14146 3.77011 
1.76854 1.52772 5.26003 
1.09444 1.93046 7.25098 
-0.381536 0.239304 0.812321 
-0.43438 1.99824 8.09941 
-0.297787 1.99878 8.12771 
-1.83581 1.32834 5.97909 
0.753846 1.86574 7.82208 
-2.06612 1.20054 5.59473 
-2.06612 1.20054 5.59473 
-1.88552 1.26955 5.90648 
1.40807 1.55902 6.86346 
-1.59101 1.17042 6.29289 
-1.89923 1.07592 5.86388 
1.89686 0.972822 4.68884 
0.234275 1.29031 6.95497 
-0.0885679 1.42761 7.7882 
0.361563 1.41496 7.67228 
0.157094 1.42004 7.73814 
0.0633971 1.36298 7.73618 
0.515318 1.27671 7.5951 
1.39825 1.174 6.82319 
-0.00391401 1.2807 7.73898 
-1.67043 0.950759 6.15481 
-1.18079 0.316461 2.32542 
0.899319 0.350366 2.50613 
1.97569 0.546952 3.92326 
0.193128 0.888418 7.67126 
-0.0897982 0.395931 3.57495 
-0.194392 0.843109 7.75134 
0.891719 0.830876 7.42436 
0.891719 0.830876 7.42436 
-0.281585 0.791326 7.74948 
-0.197489 0.740757 7.69746 
1.97473 0.421486 3.94405 
-0.812323 0.0409966 1.7443 
-2.29346 0.00585187 4.9293 
-1.76076 0.519329 5.97261 
-1.76076 0.519329 5.97261 
-1.6142 0.556593 7.05376 
-2.1299 0.359288 5.32682 
-2.12629 0.311341 5.3177 
-1.55164 0.406604 6.93909 
-0.123011 0.206363 7.65275 
-1.56982 0.11141 6.76727 
-1.95551 0.0747085 5.60093 
0.294659 0.131553 8.15349 
-1.93676 0.0495017 5.64372 
-1.77356 0.0110479 5.89235 
0.0495649 0.000754748 7.93664 
-2.14236 -0.0483673 5.20433 
1.955 -0.128889 4.37404 
1.97177 -0.12841 4.1999 
-1.41043 -0.214231 6.9352 
-1.85929 -0.196241 5.74984 
-1.99 -0.224949 5.5079 
-1.99 -0.224949 5.5079 
-1.6884 -0.258848 5.98098 
-2.0068 -0.25303 5.48134 
