ply
format ascii 1.0
element vertex 1786
property float x
property float y
property float z
element face 0
property list uchar int vertex_index
end_header
0.542965 2.38236 7.09084 
0.415684 2.31828 6.92556 
0.228011 2.29978 6.87759 
0.473225 2.33286 6.98339 
0.763648 -0.666375 -1.88552 
-10.1943 3.23015 24.7526 
0.487807 2.32787 6.99474 
-15.2623 9.66858 27.4529 
-0.719713 1.91303 5.79126 
0.644128 2.34234 7.11581 
-0.696239 1.91448 5.82402 
0.432571 2.22621 6.83906 
0.515341 2.24782 6.9225 
-0.437355 1.96143 6.04505 
0.490541 2.2219 6.87953 
0.490541 2.2219 6.87953 
0.555971 2.24174 6.95021 
0.447249 2.19212 6.81295 
0.504964 2.20834 6.87688 
1.29219 2.50497 7.82784 
0.639067 2.23205 7.00101 
0.548788 2.18153 6.88218 
0.185565 2.10405 6.64104 
0.628665 2.19556 6.96227 
-0.53242 1.84346 5.86738 
3.92506 2.68284 9.4933 
-1.22428 1.56688 5.08334 
-1.24992 1.50755 5.013 
-1.6548 0.143849 4.24608 
2.75003 2.43198 8.85765 
2.76023 2.42012 8.86137 
3.72798 2.30088 8.91345 
-0.231051 1.4552 5.87344 
0.0463244 1.52033 6.1574 
-1.86379 1.19363 4.91328 
2.09054 1.98306 8.18348 
2.09054 1.98306 8.18348 
-1.84541 1.17637 4.90564 
3.87534 2.02116 8.67535 
3.87534 2.02116 8.67535 
0.488284 0.067357 1.00777 
-0.78273 1.20324 5.26823 
2.26354 2.16973 7.81907 
4.607 -0.0840167 10.5684 
3.55186 2.01295 8.95592 
1.88931 1.77453 7.93998 
2.22148 1.60528 8.19172 
2.17817 1.24276 8.08614 
-0.719208 0.769819 5.19385 
2.41207 1.21276 8.30157 
-0.533692 0.744483 5.36374 
2.71082 1.1646 8.52496 
2.06075 0.986374 7.92591 
2.69209 1.00119 8.48065 
-6.1866 3.2555 15.5609 
0.694987 -0.103644 -1.62808 
2.04146 0.544934 10.0653 
0.507274 -0.0806776 0.93897 
0.791363 0.137136 6.20191 
1.75685 0.138536 7.50227 
1.75685 0.138536 7.50227 
0.777101 0.0582915 6.00925 
0.775444 0.0421684 6.00283 
0.613119 0.0207062 5.96502 
2.15482 -0.0563169 7.85945 
0.650637 -0.0430208 5.94037 
0.660645 -0.145387 6.00142 
1.16602 -0.246375 6.52223 
1.38324 0.932831 14.016 
0.800796 -0.232409 5.85957 
0.63091 -0.350459 5.77898 
0.590296 -0.35194 5.77159 
2.68126 -0.5978 8.26524 
1.12172 -0.669831 4.92472 
1.93037 -0.765361 7.54805 
1.93841 -0.785211 7.54237 
2.69028 -0.910686 8.21442 
2.66928 -1.00098 8.19446 
2.66928 -1.00098 8.19446 
-0.850496 -0.631268 4.80404 
3.08005 -1.16877 8.63298 
1.58977 -0.495638 3.14226 
-1.75455 -1.06957 4.48798 
1.7998 -1.53264 5.03821 
1.7998 -1.53264 5.03821 
-6.35359 -3.35791 13.5163 
1.62469 -1.35991 4.00832 
6.63538 -5.21841 16.4382 
1.4144 3.22275 8.89077 
2.6474 3.44905 9.8336 
-0.22791 2.41958 6.7666 
-0.663231 2.22042 6.2195 
-0.740973 2.17938 6.12285 
-0.466975 2.27774 6.41587 
-1.59213 1.97813 5.62035 
-1.47437 1.83917 5.19701 
0.904854 2.80166 7.96323 
0.904854 2.80166 7.96323 
-0.404622 2.24325 6.40832 
-1.36754 1.84022 5.27058 
-1.40175 1.81843 5.2154 
-1.40175 1.81843 5.2154 
-0.766134 2.07641 5.95848 
-1.37229 1.81381 5.23344 
-0.341703 2.22019 6.41665 
-0.341703 2.22019 6.41665 
0.427555 2.45497 7.10641 
-0.315895 2.21375 6.4225 
-0.315895 2.21375 6.4225 
0.578531 2.48789 7.24056 
-0.95602 1.94969 5.67542 
3.96886 3.34239 9.76681 
1.18513 2.75578 8.04202 
-1.72496 1.60991 4.9492 
-1.75443 1.7034 5.02236 
0.143009 0.561215 1.65516 
4.06376 3.21609 9.47596 
0.532513 2.43078 7.14369 
0.472243 2.37519 7.02809 
1.18278 2.68319 7.95126 
-0.533141 2.04446 6.06443 
0.572754 2.39347 7.11534 
0.572754 2.39347 7.11534 
0.122074 2.28303 6.79083 
1.82438 2.87335 8.59016 
0.524031 2.3523 7.03278 
0.498578 2.34543 7.01514 
1.49957 2.743 8.21985 
1.49957 2.743 8.21985 
0.467547 2.29933 6.94178 
0.230991 2.27101 6.84933 
3.75192 3.19071 9.65122 
-0.815339 1.88297 5.70319 
0.540701 2.30427 7.00302 
0.599192 2.30912 7.05184 
1.63036 2.70187 8.26103 
-1.09638 1.74645 5.35033 
-0.663798 1.89099 5.81739 
0.302793 2.2157 6.82739 
-0.263366 2.01584 6.23138 
-0.303929 1.98531 6.16695 
0.47945 2.2028 6.8551 
2.87333 1.76486 6.19677 
-0.572986 1.87 5.86239 
0.474328 2.13092 6.78174 
0.762579 2.22723 7.19098 
0.609092 -0.494929 -1.72198 
0.506847 2.10069 6.7838 
0.618457 2.13743 6.90795 
0.552327 2.09585 6.81339 
-0.292924 1.85826 6.06617 
3.89858 2.62757 9.4596 
0.641964 2.10019 6.90839 
1.70894 2.41513 8.06674 
-1.24837 1.49887 5.02192 
-1.09336 1.53812 5.16628 
-1.09336 1.53812 5.16628 
-1.22637 1.49631 5.04261 
-1.15207 1.56344 4.89395 
-1.01381 1.52442 5.23096 
1.11263 2.14018 7.39642 
-0.117583 1.7719 6.14365 
3.80506 2.44087 9.18455 
-0.971372 1.45805 5.22504 
0.0625652 1.74651 6.28655 
0.0554894 1.73209 6.27742 
-2.01925 1.39145 5.03877 
-0.365763 1.6025 5.84158 
-0.866732 1.45492 5.32113 
-0.232588 1.55069 5.91383 
1.438 1.96552 7.5897 
1.438 1.96552 7.5897 
1.71213 -1.25556 -4.92481 
-0.827683 1.34848 5.30661 
3.71187 2.25797 8.90786 
1.91082 2.02029 8.03282 
1.91082 2.02029 8.03282 
-0.0200997 1.53481 6.10363 
-0.211033 1.485 5.90589 
0.0544435 1.53407 6.18109 
2.04124 1.98499 8.13261 
2.04124 1.98499 8.13261 
-0.970263 1.23708 5.10324 
1.30274 -0.535304 -3.317 
1.5007 0.335826 3.28781 
-1.17464 1.15927 4.87418 
-0.501482 1.29556 5.56165 
3.70828 2.04816 8.83599 
0.605956 1.37097 5.94514 
-0.895505 1.18601 5.15417 
-0.18222 1.34851 5.88432 
-0.775412 1.21031 5.27625 
4.42107 2.55876 11.0758 
1.78587 1.78661 7.84458 
-0.998864 0.370851 3.23102 
-0.431223 1.39822 6.24504 
-1.18205 1.05286 4.82764 
-0.177734 1.2335 5.83669 
-0.0521469 0.630794 2.33349 
-0.139739 1.2289 5.8778 
2.81418 1.42707 9.00871 
-1.88406 0.382724 4.78604 
-0.319794 1.14716 5.68185 
-0.479558 1.10053 5.50537 
-0.304402 1.10694 5.67167 
-0.860517 0.998918 5.13876 
2.15409 1.56965 8.12256 
-1.9361 0.568896 4.68887 
-0.43974 0.503114 3.1559 
-1.37095 0.848933 4.58718 
-0.683925 0.977118 5.28647 
-0.667805 0.978849 5.30802 
-1.16286 0.876589 4.78762 
-1.16286 0.876589 4.78762 
0.59396 0.0557018 -2.39375 
-1.07619 0.81299 4.84925 
-15.778 -3.89682 -88.4888 
-0.041755 0.911119 5.58746 
0.195832 0.894957 5.51294 
-0.873042 0.796103 5.04237 
0.511657 0.910749 5.80499 
-2.09618 1.39735 5.61418 
1.36037 1.13722 7.29553 
1.83834 1.2026 7.75234 
0.564221 0.51103 2.11289 
2.17958 1.24463 8.09515 
2.1491 1.23386 8.05862 
2.08483 1.22317 7.98947 
0.333395 0.129944 1.23768 
0.554221 0.880852 5.82685 
-0.796717 0.774741 5.11766 
-0.764327 0.773609 5.14557 
1.53018 1.11394 7.44364 
-0.650898 0.74954 5.26391 
0.452178 -0.361138 -1.50199 
-1.80354 0.665719 4.75574 
1.98491 1.0924 7.87447 
1.01488 0.852819 6.28555 
-0.271327 0.708596 5.60919 
-0.400483 0.437975 2.06903 
-0.963865 0.608033 4.91471 
2.20961 0.964021 8.07542 
2.70717 0.989028 8.48007 
1.70956 0.870189 7.5624 
2.33467 0.93086 8.18062 
2.33467 0.93086 8.18062 
-0.652634 0.584186 5.23783 
1.40888 0.575717 5.76042 
1.95524 0.54753 9.00877 
-1.0636 0.139591 3.36257 
-0.414745 0.541904 5.43721 
-0.222972 0.526148 5.62673 
1.53549 0.678481 7.37093 
0.636831 0.5065 6.03048 
2.01618 0.618856 7.8268 
2.01618 0.618856 7.8268 
1.52086 0.505545 7.32507 
-1.88613 0.310591 4.70924 
-1.39694 0.291345 4.50562 
-1.39694 0.291345 4.50562 
0.456767 -0.262325 -1.48297 
1.67864 0.470108 7.47357 
0.769065 -0.333366 -2.40287 
-2.43797 1.53016 7.66129 
-1.25355 0.260139 4.5294 
0.739317 0.274122 6.08382 
1.09556 -0.112913 -3.0102 
1.81972 0.301068 7.58382 
1.81972 0.301068 7.58382 
2.69393 0.311365 8.37686 
0.375406 0.266148 1.44927 
0.3485 -0.0172699 1.38232 
2.67675 0.296717 8.37506 
2.69344 0.285334 8.37647 
0.765392 0.156004 6.11454 
1.72401 0.142981 7.48746 
-1.41501 0.072568 4.496 
1.05689 0.598947 4.21649 
0.403425 0.234064 1.61017 
1.34734 0.574383 5.23879 
1.58253 -0.80335 -4.79937 
1.58253 -0.80335 -4.79937 
19.1988 -6.35979 -57.0043 
-1.57521 0.0534276 4.64237 
2.17842 0.0586883 7.89725 
2.17842 0.0586883 7.89725 
0.712748 0.033119 6.05417 
0.712748 0.033119 6.05417 
-0.733135 0.0185639 5.01317 
0.63579 0.0197898 5.96841 
-0.86073 0.00616568 4.88276 
0.756524 -0.00533915 5.97906 
0.73518 -0.0204027 5.97225 
0.434975 -0.0288742 5.75128 
0.434975 -0.0288742 5.75128 
2.19988 -0.0549225 7.90783 
0.738653 -0.0402571 5.95501 
0.728676 -0.0547576 5.94351 
0.700837 -0.0592585 5.9396 
2.19488 -0.0917288 7.90413 
0.950233 -0.0739024 6.25726 
0.622596 -0.117822 6.0022 
-0.773326 -0.146468 4.9578 
-1.79554 -0.137237 4.58892 
-0.870938 -0.152449 4.85506 
-0.830331 -0.157769 4.90275 
-0.7925 -0.160682 4.94117 
0.606641 -0.209768 5.97818 
0.228888 -0.205918 5.68907 
0.228888 -0.205918 5.68907 
-0.750987 -0.182097 4.97602 
2.15596 -0.314017 7.82423 
0.664116 -0.294253 5.85574 
-0.748484 -0.255604 4.95767 
0.661734 -0.306474 5.84872 
0.661734 -0.306474 5.84872 
-1.83684 -0.202948 4.96006 
-1.2538 -0.239028 4.44316 
-1.33306 -0.236992 4.37702 
0.766101 -0.324634 5.82111 
-1.02134 -0.270029 4.66519 
0.635829 -0.341221 5.79661 
0.430254 -0.340896 5.70536 
0.967191 -0.425917 11.7308 
-0.16446 -0.316274 5.16324 
0.797894 -0.365941 5.93369 
0.905225 -0.402248 6.17598 
1.98625 -0.500925 7.64664 
0.379925 0.0522414 1.45584 
0.542853 -0.379843 5.80015 
-1.89452 -0.299758 4.57198 
0.983945 -0.2471 6.28428 
-0.785524 -0.353964 4.8946 
0.899587 -0.159637 -2.07595 
-1.95574 -0.366328 4.47936 
-0.671468 -0.472298 4.99115 
2.6873 -0.800109 8.23607 
1.93908 -0.78511 7.54739 
-0.583511 -0.537817 5.07089 
-0.583511 -0.537817 5.07089 
-0.543068 -0.548452 5.10768 
0.834448 -0.664057 5.81104 
1.60348 -0.785828 6.57221 
1.60348 -0.785828 6.57221 
1.63359 -0.808187 6.58889 
0.292006 -0.660461 5.26879 
0.015795 -0.630303 4.99705 
1.70435 -0.866558 6.66 
-0.717619 -0.640759 4.93574 
-1.15033 -0.592455 4.48959 
-1.09398 -0.609648 4.55734 
1.44075 -0.85924 6.39998 
0.655139 -0.441343 3.25786 
-1.55502 0.352941 5.5458 
-1.06205 -0.765039 4.55977 
-1.29114 -0.736297 4.32961 
-0.597058 -0.94795 5.00028 
-0.597058 -0.94795 5.00028 
-0.612534 -0.957269 4.99262 
-0.618435 -0.97807 4.98546 
-0.618435 -0.97807 4.98546 
-0.627827 -0.978159 4.98093 
0.435541 -1.0206 4.86874 
3.14802 -1.67086 7.93731 
1.28239 -0.832695 3.81336 
1.737 -1.11222 5.16792 
1.21538 -0.9992 4.64874 
0.949638 -0.993131 4.61223 
0.475242 -1.0709 4.82233 
1.91577 -1.20697 5.33711 
0.459316 -1.09489 4.83762 
0.461452 0.0729586 1.03928 
0.951123 -1.06832 4.60201 
1.3955 -1.13596 4.81397 
-1.15352 -1.09583 4.41963 
-1.25264 -1.07105 4.30542 
0.338633 -1.35106 4.32565 
-0.544312 -1.3602 4.35007 
-0.568365 -1.36006 4.31519 
-0.568365 -1.36006 4.31519 
-0.241188 -1.34044 4.18867 
-0.241188 -1.34044 4.18867 
-1.20504 -1.36343 4.1699 
4.9041 -3.56453 11.4917 
3.02743 -4.23584 12.0871 
0.622924 -0.827654 2.50178 
0.320642 0.610828 -1.81665 
0.320642 0.610828 -1.81665 
-1.43539 1.15318 3.42201 
-1.51653 1.85356 5.18244 
-0.770886 2.18581 6.116 
0.493005 2.57282 7.31206 
0.493005 2.57282 7.31206 
-1.10067 1.97698 5.61362 
-0.928591 2.04314 5.80813 
-2.01901 1.89369 5.53781 
-0.809099 2.0732 5.92722 
2.33148 0.71285 7.48639 
0.500071 2.50256 7.21077 
2.83745 2.06637 6.17551 
2.84298 2.05567 6.15261 
0.602738 2.48581 7.25432 
-0.274842 2.1917 6.41464 
0.563052 2.45899 7.19981 
-0.255829 2.1871 6.42263 
0.0701784 2.29924 6.77518 
-0.216098 2.19407 6.45958 
0.547351 2.41343 7.13525 
1.04444 -0.29831 -3.01586 
1.43244 2.78079 8.22682 
4.03306 3.15959 9.41673 
0.97201 2.59125 7.70676 
-1.04644 1.84183 5.48328 
-0.792772 1.92575 5.76432 
-0.852661 1.89911 5.68226 
0.304905 0.247598 2.87562 
0.783824 2.49301 7.47267 
3.89989 3.16373 9.51374 
3.90807 3.14837 9.47761 
-0.750328 1.92207 5.78138 
0.596873 2.35507 7.09884 
-0.484415 1.97417 6.02242 
-0.678894 1.90316 5.81629 
1.96107 2.80907 8.596 
0.051774 2.12235 6.56661 
0.0442921 2.09929 6.53533 
0.369798 2.19223 6.83354 
0.205482 2.13862 6.68656 
0.45047 2.1641 6.78492 
2.87539 1.74031 6.19087 
0.573843 2.18373 6.91274 
1.82294 2.61666 8.30622 
4.16018 2.77558 9.24807 
1.47977 2.484 7.93844 
1.47977 2.484 7.93844 
-0.481094 1.84592 5.90724 
-0.386201 0.308476 2.32248 
-1.16962 0.989511 4.38027 
-1.84338 2.08943 6.92831 
3.91428 2.84756 9.2276 
2.31054 2.68663 8.72878 
2.31054 2.68663 8.72878 
0.553663 2.20727 7.29595 
-0.0362567 1.92979 6.33415 
0.378295 2.03833 6.7234 
-0.32295 1.82256 6.02517 
1.36484 2.31541 7.72303 
0.815099 2.14746 7.16444 
-0.762973 1.65882 5.53729 
-1.21435 1.51414 5.06261 
-1.21435 1.51414 5.06261 
1.40179 2.31644 7.75785 
0.80838 2.12936 7.16061 
-0.734741 1.64958 5.54524 
-1.18801 1.50949 5.07821 
-1.18801 1.50949 5.07821 
-0.859012 1.59503 5.40439 
-1.14556 1.50166 5.11247 
-0.766703 0.409849 3.40968 
-1.63227 0.671207 4.67721 
1.53226 2.29304 7.85092 
3.3889 2.15189 7.10961 
-0.664115 1.6311 5.58702 
0.941894 2.11125 7.24153 
2.82744 1.628 6.05375 
1.4863 -0.717428 -6.98039 
-1.09446 1.49057 5.13591 
0.943152 2.08252 7.21183 
0.943152 2.08252 7.21183 
-1.92492 1.4819 5.17077 
-1.92492 1.4819 5.17077 
2.78003 1.67969 5.97035 
3.98048 2.38536 8.7163 
1.35145 1.48908 5.68047 
1.08801 2.11368 7.36166 
0.653688 1.98821 6.92061 
1.79866 2.2969 8.06614 
-0.886887 1.5174 5.32932 
0.194871 1.82808 6.44075 
0.194871 1.82808 6.44075 
5.03681 3.54939 11.7974 
3.81807 2.44472 9.1593 
-0.965359 1.47084 5.241 
-0.965359 1.47084 5.241 
-1.00509 1.45811 5.19583 
-0.798713 1.50747 5.38601 
0.189606 1.7945 6.42759 
-1.37495 1.32902 4.78346 
-1.37309 1.31642 4.78325 
0.521558 -0.480843 -3.13879 
0.521558 -0.480843 -3.13879 
-0.919177 1.44372 5.25892 
-0.345782 1.5949 5.84846 
1.80302 2.17206 7.99582 
0.381129 0.437424 1.6748 
1.62674 2.11418 7.82214 
-0.304361 1.58386 5.87636 
1.80979 2.1494 7.98799 
-1.70449 1.81169 5.49434 
1.04199 -0.163026 -2.70033 
4.03528 2.26129 8.57794 
4.03528 2.26129 8.57794 
-0.391358 1.51565 5.75931 
4.02418 2.27369 8.65336 
2.77021 1.51211 5.92831 
3.8727 2.20058 8.42666 
4.02599 2.312 8.85951 
3.76499 2.40462 8.35358 
-3.59884 0.413849 11.136 
-0.982867 1.33057 5.1425 
3.75957 2.33964 8.61749 
3.8305 2.26573 8.80168 
0.975992 1.65933 6.49378 
3.72613 2.26352 8.88856 
-0.0426549 1.53109 6.07319 
0.49054 1.52714 6.0962 
-0.862205 1.30086 5.23095 
2.11937 1.99256 8.20713 
1.82279 1.92399 7.93021 
2.7664 1.37308 5.87631 
-0.976306 1.22725 5.09903 
-0.723564 0.702965 3.75076 
2.75853 1.38272 5.92445 
2.11027 1.96287 8.19428 
4.02441 2.04628 8.57847 
3.91021 2.06697 8.70299 
0.753755 1.4466 6.12219 
-0.868546 1.22776 5.20122 
-0.868546 1.22776 5.20122 
7.07363 4.00375 16.9116 
-0.451181 1.28324 5.60153 
-0.451181 1.28324 5.60153 
0.452914 0.465339 2.02537 
0.393141 0.420282 1.75553 
-1.28178 1.08519 4.7431 
-0.135788 1.3501 5.91942 
-0.736295 1.20628 5.31593 
-0.164534 1.33113 5.89135 
-0.164534 1.33113 5.89135 
-0.196368 1.31824 5.8539 
-0.713176 1.20434 5.34405 
1.95353 1.75464 7.98731 
1.95353 1.75464 7.98731 
-0.807625 1.14967 5.2394 
-0.771568 1.13511 5.25185 
-0.741777 1.14082 5.28198 
2.09372 1.74439 8.11913 
2.09372 1.74439 8.11913 
-0.716745 1.13751 5.30619 
-0.743044 1.12737 5.27367 
0.930964 1.34233 6.30424 
-0.675982 1.12857 5.33956 
3.33446 1.86843 8.96447 
-16.3789 -1.17263 40.1518 
-2.05676 0.777282 4.98486 
-0.0869833 1.21555 5.92263 
-0.859896 1.00991 5.14096 
-1.67432 0.948604 4.83695 
-0.407659 1.08577 5.57772 
0.329363 0.160313 1.24272 
2.18075 1.56773 8.14473 
-1.81283 0.29376 4.60407 
-0.698621 1.00242 5.28291 
-1.96594 1.01904 4.97519 
2.41153 1.57706 8.37276 
0.176363 1.10618 5.88237 
0.66107 1.20898 6.70454 
1.13627 -0.0111258 -2.8991 
-1.8891 0.533289 4.75903 
-0.101274 1.05606 5.84979 
-1.12445 0.867851 4.82565 
0.68322 0.0717895 -2.96441 
-0.625854 0.950738 5.34289 
0.691591 1.0729 6.0512 
0.883645 -0.00103952 -2.25416 
-2.00198 1.19002 5.07477 
0.78664 1.06016 6.14255 
-2.48368 2.88539 10.6223 
0.273382 0.981157 5.75126 
4.79773 -0.84879 20.9061 
27.858 24.0041 150.197 
0.732678 0.891246 5.1733 
2.40667 1.38686 8.34043 
-1.0427 0.811711 4.8868 
1.83038 1.28846 7.76857 
0.481694 0.918576 5.76852 
-0.709532 0.826377 5.21504 
-0.721322 0.820309 5.2047 
0.493007 0.906776 5.77204 
2.06859 1.24112 7.97715 
0.482264 0.890277 5.76351 
-0.778692 0.793841 5.13721 
-1.70903 0.137798 4.54565 
-1.70903 0.137798 4.54565 
0.540344 0.889557 5.81417 
2.23302 1.22017 8.12785 
-0.700288 0.772573 5.21835 
0.613659 0.843147 5.88058 
-0.638554 0.747128 5.27046 
1.84713 1.08964 7.74752 
0.51695 0.813983 5.80008 
-0.517443 0.981586 5.17877 
-0.603427 0.740246 5.29041 
-1.9818 -0.32193 6.26442 
-1.72422 1.44358 5.48361 
0.801978 -0.634537 -2.54624 
0.982488 0.823821 6.24173 
0.478579 0.758111 5.77785 
-0.386444 0.693675 5.47464 
0.607292 -0.229366 -2.97932 
0.771963 -0.678897 -3.84368 
2.07084 0.97307 7.93066 
0.853233 -0.947676 -4.72456 
9.02247 -11.4844 -50.2096 
2.14982 0.919223 7.98996 
2.14982 0.919223 7.98996 
0.800652 0.68772 6.21818 
0.367894 0.253258 1.71313 
-8.24186 1.69155 20.5122 
2.22078 0.804537 8.04607 
-1.49228 0.463315 4.62872 
1.99426 0.769785 7.8297 
0.512302 -0.278668 -1.30347 
0.68044 0.554534 6.07766 
0.735328 0.547531 6.12612 
0.627474 0.532811 6.029 
0.72824 0.520874 6.12767 
0.785058 0.514217 6.17258 
-0.866989 0.408018 4.96797 
0.401256 -0.131144 1.56107 
2.14831 0.368597 8.47539 
-0.672255 -0.0776642 5.29416 
0.585643 0.45327 5.96621 
0.585643 0.45327 5.96621 
-2.00547 1.05325 5.03179 
-0.463789 0.371388 5.3423 
0.649045 0.932874 6.44199 
1.85388 0.455692 7.63786 
-1.9834 0.979345 4.88803 
0.349486 0.0735346 1.3583 
0.477716 0.176755 1.84864 
-1.22658 0.255162 4.55654 
-0.98313 0.262943 4.82134 
2.13573 0.428355 7.91726 
-1.12919 0.245235 4.68144 
2.29816 0.405894 8.05947 
-1.48199 1.57416 8.40131 
-0.619248 0.23315 5.16704 
1.67486 0.326092 7.45292 
1.67486 0.326092 7.45292 
-0.569492 0.227867 5.21599 
1.76012 0.311908 7.52103 
-0.625415 0.2108 5.17426 
-0.199259 0.0240258 2.03962 
-1.80135 0.295916 4.70494 
-0.71343 0.174171 5.06869 
0.435065 0.172985 5.75285 
0.435065 0.172985 5.75285 
-0.700389 0.130951 5.0615 
-1.92563 0.121369 4.66771 
0.743138 0.148041 6.0893 
0.202169 0.239574 1.56843 
1.59589 0.158357 7.31227 
1.152 0.14491 6.62771 
0.437937 0.12293 5.76899 
-0.697194 0.103515 5.06292 
-4.05286 2.02519 9.97825 
0.609044 0.445538 2.59569 
-1.1152 0.0806754 4.64291 
1.56249 1.1013 6.72493 
0.992636 0.0968713 6.29609 
-0.712503 0.0721087 5.05378 
1.91673 0.0928716 7.63914 
-1.15944 0.0548408 4.60714 
-1.17221 0.0508745 4.58807 
2.07864 0.0831967 7.81919 
0.892358 0.0657047 6.22004 
0.577972 0.0626603 4.02889 
0.563888 -0.0839885 1.04125 
-0.867685 0.0318349 4.88821 
-0.867685 0.0318349 4.88821 
0.0147106 0.0231803 5.51086 
-0.847515 0.0197458 4.90455 
-0.847515 0.0197458 4.90455 
-0.531207 0.0103839 5.22723 
0.622524 0.00527429 5.96204 
0.460014 -0.00669793 5.76852 
0.629198 -0.00931818 5.9474 
0.459872 -0.0214207 5.77132 
0.82837 -0.10277 11.7244 
2.38578 0.541908 -5.73188 
0.479435 -0.0338256 5.79442 
0.420492 -0.0341538 5.73288 
0.637519 -0.0377035 5.94328 
0.51147 -0.04245 5.82457 
0.495089 -0.0418625 5.80828 
1.64367 -0.0666692 6.80157 
0.81229 -0.0869591 -1.94338 
0.792601 -0.242206 -1.91264 
1.97656 -0.0824816 7.68041 
1.97656 -0.0824816 7.68041 
1.97656 -0.0824816 7.68041 
1.54681 0.895081 5.68593 
0.896134 -0.0802222 6.20891 
2.39225 -0.120035 8.09142 
0.0876337 -0.0815451 5.54166 
0.679372 -0.150307 6.00424 
0.058787 -0.154695 5.50946 
-0.82124 -0.140421 4.90873 
0.967272 -0.18005 6.26421 
-0.753035 -0.161823 4.97668 
-1.29344 0.88123 6.38242 
0.397204 -0.189278 5.68855 
0.397204 -0.189278 5.68855 
-0.918165 -0.161351 4.81033 
1.03246 -0.440635 11.6911 
-0.627111 -0.173989 5.09002 
-1.12621 -0.158185 4.59872 
-0.757748 -0.172073 4.9625 
1.96895 -0.289963 7.65653 
-0.513587 -0.198963 5.21601 
1.00291 -0.254807 6.29335 
0.769278 -0.280152 5.82439 
0.766694 -0.295743 5.81949 
0.676346 -0.306984 5.84996 
0.705234 -0.310263 5.82094 
0.4567 -0.320146 5.72088 
0.588015 -0.333297 5.7704 
-0.981046 -0.272037 4.71049 
-0.950916 -0.275622 4.74623 
0.403548 -0.177302 5.72674 
-0.788548 -0.293919 4.91792 
0.573332 -0.348958 5.78146 
0.573332 -0.348958 5.78146 
0.559814 -0.350951 5.79737 
-0.733036 -0.301025 4.9583 
0.41584 -0.346529 5.6915 
0.41584 -0.346529 5.6915 
0.489747 -0.355135 5.76273 
-0.608486 -0.316303 5.1022 
1.30251 -0.42034 6.65794 
-0.187384 -0.333195 5.09283 
-0.158363 -0.337893 5.14211 
-0.184965 -0.360303 5.08847 
2.06506 0.823698 6.77175 
0.45214 -0.438072 5.71402 
1.24375 -0.523263 6.67474 
0.961294 -0.492657 6.22148 
0.966309 -0.330296 6.26472 
0.941731 -0.491372 6.19968 
0.348709 -0.219858 1.37603 
0.42676 -0.0258043 1.73054 
1.5124 -0.582706 6.75485 
2.01838 -0.691527 7.64239 
1.93869 -0.777081 7.57661 
-1.09078 -0.161955 4.21118 
0.564999 -0.525611 5.71747 
-1.02051 -0.433896 4.66484 
-1.02051 -0.433896 4.66484 
-1.11401 -0.426756 4.5549 
-0.998597 -0.443399 4.67665 
-1.09439 -0.43342 4.56889 
0.37877 -0.534635 5.55009 
0.565426 -0.550957 5.69639 
-0.666573 -0.496754 4.99153 
1.9824 -0.756455 7.59174 
-0.612091 -0.535959 5.04859 
-0.581443 -0.549704 5.07447 
2.68842 -0.951487 8.21237 
1.45977 -0.751092 6.42169 
0.547408 -0.512846 4.3574 
0.0933823 -0.603964 5.07211 
2.6621 -0.978655 8.18572 
-0.0985203 -0.584246 4.89083 
0.493422 -0.318512 2.67007 
1.06008 -0.727222 6.04309 
-0.814887 -0.58072 4.80834 
-0.143843 -0.595019 4.83374 
2.6824 -3.50357 28.0703 
2.17946 -0.971234 7.76702 
0.255932 -0.656401 5.24373 
2.38002 -0.999322 7.96512 
-0.0205991 -0.626951 4.96655 
1.37883 -1.00498 9.86253 
0.329712 -0.429163 3.35885 
-0.548003 -0.649853 5.08779 
1.43214 -0.841017 6.39547 
-0.64359 -0.65806 5.00204 
1.50071 -0.852575 6.45313 
1.16169 -0.810823 6.13062 
-0.894098 -0.629164 4.76142 
1.2297 -0.822591 6.18771 
-1.03081 -0.616498 4.62894 
-1.17063 -0.595735 4.47591 
1.88493 -1.65979 12.4291 
0.888995 -0.782743 5.86181 
-1.05284 -0.613817 4.59668 
1.3135 -1.08641 8.10878 
-1.18573 -0.598306 4.46914 
-1.0779 -0.614093 4.57912 
0.586995 -0.0313666 -2.50324 
-1.2166 -0.592584 4.41933 
0.614663 -0.753644 5.58983 
0.52477 -0.587806 4.33936 
0.503903 -0.418902 3.05764 
2.23418 -3.99315 29.2158 
-0.410503 -0.691543 5.04355 
-0.410503 -0.691543 5.04355 
0.704476 -0.782378 5.67623 
1.54165 -0.902471 6.49336 
1.54165 -0.902471 6.49336 
-6.53041 13.6328 -97.9504 
0.562494 -0.388551 2.76218 
1.26978 -0.872691 6.23649 
0.388229 -0.747544 5.3547 
-0.608534 -0.70536 5.02259 
2.38157 -1.12123 7.9548 
0.995655 -0.840732 5.95838 
0.995655 -0.840732 5.95838 
0.0803299 -0.713467 5.05789 
-0.227973 -0.693206 4.86002 
0.724944 -0.815497 5.68996 
0.724944 -0.815497 5.68996 
0.368342 -0.778098 5.34021 
0.368342 -0.778098 5.34021 
1.76105 -0.972926 6.59275 
0.088534 -0.748975 5.05406 
0.088534 -0.748975 5.05406 
-0.255835 -0.727261 4.88435 
-0.625696 -0.770086 5.00634 
-0.618503 -0.80034 5.0102 
-1.16923 -0.748 4.45476 
-0.68773 -0.830577 4.92103 
1.98914 -0.926774 5.40349 
-0.655446 -0.944835 4.96693 
-0.712704 -0.939402 4.90044 
-0.905748 -0.911382 4.69185 
-0.905748 -0.911382 4.69185 
-1.25732 -0.8701 4.33633 
1.72517 -1.05086 5.16376 
1.73756 -1.07049 5.17522 
0.0233492 -1.02231 4.93524 
3.16646 -1.65949 7.97691 
1.87302 -1.1387 5.30391 
1.37002 -1.03325 4.80647 
0.0879164 -1.08841 4.9896 
0.970293 -1.01218 4.60939 
0.970293 -1.01218 4.60939 
2.9569 -1.61524 7.29363 
0.500718 -0.0742743 1.16835 
1.90364 -1.18613 5.33188 
1.36904 -1.07484 4.80379 
1.36904 -1.07484 4.80379 
0.972757 -1.04694 4.60665 
0.972757 -1.04694 4.60665 
0.894786 -1.04686 4.60739 
0.827667 -1.0543 4.61355 
1.54872 -1.15406 4.97569 
1.01665 -1.07043 4.5965 
-1.20483 -1.08765 4.37015 
-1.05977 -1.12812 4.50584 
1.08175 -0.0747105 -3.74298 
0.19453 -1.26809 4.99832 
0.19453 -1.26809 4.99832 
0.617382 -2.75469 14.9941 
-0.0932061 -1.2293 4.78247 
-0.117265 -1.22404 4.74761 
0.12921 -1.28357 4.93906 
0.658898 0.138595 -1.73222 
0.878165 -1.19003 4.50001 
0.869597 -1.29629 4.89292 
0.869597 -1.29629 4.89292 
1.0614 -1.20699 4.55908 
1.0614 -1.20699 4.55908 
-0.870786 -1.25104 4.56392 
1.71973 -0.0763498 -4.286 
1.71973 -0.0763498 -4.286 
-1.15217 -1.22651 4.27465 
-1.16678 -1.23276 4.25367 
1.571 -1.39868 4.78942 
-1.13532 -1.26351 4.27672 
0.799416 0.460169 -2.00235 
2.95424 -1.98381 6.52191 
-1.80898 1.14131 4.9937 
0.206363 2.53043 7.17254 
0.206363 2.53043 7.17254 
0.328657 -0.674498 -1.88135 
2.42645 3.30896 9.51782 
0.442345 2.48582 7.15439 
0.404296 2.41222 7.04141 
-0.924751 1.95815 5.71282 
-0.924751 1.95815 5.71282 
-0.924751 1.95815 5.71282 
-1.88695 1.70642 5.23328 
0.602976 2.48319 7.24851 
-0.896422 1.95366 5.72181 
0.506753 2.42941 7.1323 
0.201285 2.37099 6.95112 
-0.116709 0.73188 3.26899 
0.397495 2.3514 6.96187 
-0.835039 1.92878 5.73228 
-2.36235 2.0828 6.14592 
-0.134531 2.17307 6.48379 
-0.134531 2.17307 6.48379 
3.77426 3.27641 9.79547 
-0.774252 1.92699 5.77548 
1.10841 2.5917 7.7868 
0.176808 2.25968 6.79425 
0.53713 2.32772 7.01625 
-1.13422 1.75577 5.33107 
-2.31765 2.00551 6.05482 
0.193378 2.22747 6.77387 
-0.659042 1.90741 5.82704 
0.534935 2.27183 6.96274 
0.534935 2.27183 6.96274 
-0.0108444 -2.5792 -11.3138 
0.000557158 2.13462 6.55319 
0.110808 2.15937 6.64292 
-2.93265 2.43576 7.40679 
-1.06639 1.74049 5.37501 
-1.06639 1.74049 5.37501 
0.340525 2.21456 6.84709 
1.75259 2.64725 8.28418 
2.8702 1.75907 6.21501 
1.40633 2.50388 7.87973 
-0.571167 1.84973 5.8426 
0.0527037 0.333164 1.8748 
0.202314 2.1026 6.65135 
0.446618 2.1362 6.76218 
4.09823 2.58274 9.03188 
0.233058 2.08759 6.66231 
-0.570796 1.82855 5.83541 
3.97554 2.78841 8.92298 
0.517688 2.12731 6.81332 
-0.512905 1.83383 5.88034 
0.576099 2.14188 6.87989 
-0.0853951 1.96228 6.31626 
-0.452021 1.83964 5.92698 
4.03734 2.64519 9.38505 
0.791023 2.23354 7.21715 
3.78278 2.82347 9.14858 
0.822387 2.23334 7.24553 
3.77819 2.78119 9.07043 
3.90805 2.62868 9.42108 
7.77224 5.35361 18.6989 
-0.0236224 1.95087 6.36656 
0.377456 2.05728 6.72428 
-0.395683 1.82708 5.96801 
0.336456 2.04757 6.70267 
2.48143 2.69703 8.8443 
0.310884 2.02724 6.67105 
1.31324 2.33337 7.6956 
1.31324 2.33337 7.6956 
0.569437 2.04927 6.80586 
1.75094 2.43794 8.11343 
0.511816 2.03044 6.76246 
0.579896 2.02904 6.80762 
1.72914 2.39562 8.04596 
-0.721404 1.64607 5.56102 
0.357286 -0.539179 -1.6392 
-1.35129 1.73071 5.94513 
0.916954 2.11931 7.22989 
4.03677 2.52992 8.65635 
1.57375 2.27386 7.86492 
-0.666164 1.61342 5.58251 
-0.666164 1.61342 5.58251 
-1.2238 1.44544 5.00065 
-1.64152 0.44329 4.45108 
1.18707 2.14928 7.47582 
3.86696 2.59197 8.63123 
-0.0720073 1.7726 6.19661 
3.92564 2.4457 9.07007 
7.0468 4.91498 16.9289 
3.81494 2.44193 9.14951 
3.61714 2.51978 9.11031 
0.677309 1.71034 6.29777 
1.23859 2.00979 7.43424 
1.90739 1.78854 8.29529 
-1.79064 1.46496 5.0765 
2.71063 1.6526 5.78152 
9.24379 -7.50544 -49.7766 
-1.22304 1.26234 4.89496 
3.71875 2.29029 8.92465 
-0.979044 1.30954 5.10787 
1.00011 1.66507 6.51947 
0.561469 1.56985 6.17978 
0.624122 1.57427 6.24428 
0.395828 1.50847 5.98861 
3.52798 2.33414 8.83141 
0.467983 1.52058 6.07697 
0.467983 1.52058 6.07697 
-0.909324 1.26883 5.174 
-0.909324 1.26883 5.174 
-0.664124 1.32447 5.41639 
1.31248 1.81056 7.41437 
1.31248 1.81056 7.41437 
1.47704 1.83361 7.57933 
2.03042 1.95882 8.11045 
0.632835 -0.190341 -1.66653 
3.90449 2.06501 8.68626 
1.60721 1.82779 7.69743 
-0.23408 1.38596 5.84886 
-0.0354956 1.41036 6.03066 
2.26039 1.94207 8.32422 
-0.897252 1.20035 5.15541 
3.70425 2.07078 8.93439 
-0.803823 1.21392 5.25864 
-0.477649 1.28261 5.56987 
-1.86468 1.12238 4.89099 
-0.336565 1.28572 5.70996 
0.795762 1.36056 6.17751 
-0.734982 1.17234 5.30407 
-0.867994 1.13476 5.16197 
-6.50019 4.71647 16.536 
-0.273851 1.24062 5.75295 
1.09451 1.33769 6.32603 
1.80253 1.64042 7.80477 
0.73024 0.871823 4.07697 
1.68102 1.48478 7.67481 
1.79059 1.47452 7.76368 
-1.92394 1.47923 5.08666 
-0.249328 1.07631 5.71174 
-0.249328 1.07631 5.71174 
-0.325142 1.06533 5.64837 
-0.671332 0.996909 5.2953 
-1.81553 0.282343 4.60785 
2.40503 1.53103 8.3524 
-1.0863 0.869374 4.85645 
1.27996 1.14913 6.60715 
0.195709 0.979292 5.6671 
-0.351905 0.926642 5.58692 
-0.351905 0.926642 5.58692 
-0.19615 0.947769 5.73809 
-0.228531 0.924923 5.71104 
-0.201476 0.913832 5.72547 
0.471341 0.904564 5.76393 
0.403114 0.884182 5.82737 
0.97792 0.879807 6.23448 
0.442725 0.813654 5.80016 
1.05294 1.5649 12.0857 
1.05294 1.5649 12.0857 
0.553131 0.795978 5.84296 
0.992839 0.846988 6.25708 
-0.454499 0.731149 5.44596 
-0.411617 0.719664 5.47501 
0.568624 0.765252 5.87163 
1.05395 0.804549 6.30737 
-1.086 0.60376 4.78584 
2.01107 0.977052 7.86119 
2.01107 0.977052 7.86119 
0.472527 0.701274 5.7511 
-0.852706 0.608664 5.02246 
1.01042 0.74561 6.29022 
1.01042 0.74561 6.29022 
2.08418 0.925674 7.9316 
0.885945 0.0748023 -2.24978 
0.974112 0.697299 6.25318 
-1.86513 0.8084 4.66522 
2.08923 0.811843 7.92401 
0.676716 0.624738 6.09328 
-0.776001 0.510017 5.07023 
-0.34815 0.533603 5.50268 
-0.34815 0.533603 5.50268 
-2.05878 0.970039 5.39829 
-0.131296 0.515624 5.7028 
-0.131296 0.515624 5.7028 
0.739428 0.548103 6.41185 
0.703833 0.531503 6.10176 
0.703833 0.531503 6.10176 
0.657922 0.524808 6.05041 
0.657922 0.524808 6.05041 
0.691984 0.554006 6.36269 
-0.859823 0.42608 4.96667 
2.22968 0.00270815 -5.57038 
0.749205 0.515044 6.14417 
0.749205 0.515044 6.14417 
0.617033 0.494538 6.00844 
0.596344 0.471178 5.99084 
1.46997 0.566283 7.28266 
0.498222 -0.207502 -4.09085 
-0.571815 0.39235 5.24498 
-0.616069 0.380322 5.2095 
0.807187 0.446637 6.19029 
-0.577574 0.376963 5.23758 
0.19728 0.384132 5.73198 
-1.34841 0.295398 4.44994 
-0.386057 0.359264 5.41284 
0.975623 0.672864 4.01834 
-1.14918 0.272008 4.66109 
0.579989 0.459824 2.24636 
-1.12528 0.257368 4.67342 
-1.11891 0.234358 4.6813 
-0.879091 0.240796 4.92081 
-1.39407 0.211005 4.45984 
1.52137 0.33788 7.30127 
1.52137 0.33788 7.30127 
-0.711684 0.222483 5.10261 
-1.92986 0.199908 4.6652 
-0.516011 0.194269 5.26425 
-1.70275 0.795474 4.80686 
-0.716765 0.145525 5.05872 
0.06652 0.158902 5.59305 
-2.19689 1.00327 5.75737 
0.670301 -0.34415 -4.27609 
0.902822 0.256754 11.698 
1.01391 0.248711 11.7228 
0.0830665 0.130201 5.60265 
-0.118923 0.104291 5.07328 
0.401762 0.119438 5.7353 
0.401762 0.119438 5.7353 
1.65353 0.142719 7.40224 
0.111157 0.0753281 5.60703 
-0.903252 0.0509611 4.85663 
0.331763 0.079154 1.21058 
-1.00485 0.0381453 4.75961 
0.0407311 0.0416563 5.52586 
0.0831802 0.035963 5.58788 
-0.952655 0.0226081 4.7894 
-0.866844 0.0170789 4.8807 
0.171584 0.00495274 5.66747 
-0.671977 -0.00358698 5.07219 
0.679001 -0.0572936 5.94277 
0.224442 -0.0586987 5.72414 
0.132303 -0.0708678 5.58959 
1.15152 -0.0873908 6.61374 
1.18751 -0.0915599 6.68565 
1.64149 -0.0979627 6.79552 
0.243803 -0.082779 5.72961 
-2.38386 -0.880282 7.01892 
1.20882 -0.113749 6.69369 
1.32885 -0.247356 7.35459 
0.437457 -0.124599 5.73884 
0.437457 -0.124599 5.73884 
0.476644 -0.126209 5.78109 
0.0531964 -0.12659 5.51999 
0.0531964 -0.12659 5.51999 
-0.641299 -0.144465 5.08526 
-0.477487 0.0383103 2.70889 
-1.17314 0.0515044 6.65793 
0.928125 -0.179813 6.223 
-1.15414 -0.137654 4.57144 
-0.97295 -0.144362 4.75396 
-0.97295 -0.144362 4.75396 
-1.05505 -0.147191 4.65944 
-0.0183955 -0.177979 5.46094 
-0.949323 -0.16304 4.77968 
-1.05352 -0.163216 4.65138 
1.25693 -0.249563 6.73214 
-0.942933 -0.177407 4.77063 
0.0658618 -0.211274 5.5211 
0.728082 -0.227282 5.85197 
0.758222 -0.233577 5.84951 
0.740161 -0.248359 5.84234 
0.51148 -0.116174 0.932988 
-1.16758 -0.208577 4.53567 
1.24912 -0.319792 6.69717 
1.83135 -0.362158 7.5113 
1.29734 -0.327691 6.74764 
1.29734 -0.327691 6.74764 
0.731029 -0.300174 5.81985 
0.707587 -0.32473 5.80873 
0.609476 -0.339284 5.77435 
-3.12529 14.45 -224.103 
0.076625 -0.327537 5.53553 
-0.673612 -0.304992 5.0291 
0.873556 -0.885003 12.4254 
1.81848 -0.484046 7.48492 
1.81848 -0.484046 7.48492 
-1.94204 -0.292992 4.55357 
-1.94204 -0.292992 4.55357 
0.19914 -0.368611 5.64964 
0.534451 1.78217 -27.1264 
-2.02601 -0.351924 5.19866 
-0.088668 -0.375253 5.36093 
1.22983 -0.493116 6.67023 
0.24583 -0.0493893 1.33557 
0.471152 -0.436172 5.73393 
0.474605 -0.277715 5.79425 
0.431928 -0.434223 5.69473 
-0.704799 -0.591174 3.67221 
-0.541771 -0.455458 5.12813 
-0.0909951 0.298205 2.34218 
-0.0849726 -0.11948 1.85298 
-1.04857 -0.427598 4.62954 
2.30459 0.50169 -9.55476 
0.103584 -0.0861412 1.57064 
0.55492 -0.540391 5.72724 
2.67339 -0.779802 8.22955 
0.102377 -0.236045 -2.56464 
-0.803479 -0.472745 4.83093 
-0.830017 -0.479176 4.81883 
2.04132 -0.805604 7.88027 
1.98222 -0.796252 7.58367 
-0.52163 -0.56614 5.12506 
2.67393 -0.927433 8.21033 
1.80569 0.315326 -5.42551 
0.994243 -0.111337 -2.69472 
1.15533 0.4533 -3.12381 
0.841618 -0.680569 5.8254 
1.25356 -0.73143 6.23853 
1.18949 -0.721587 6.15651 
-0.495191 -0.604834 5.14019 
0.646393 -0.663092 5.62181 
0.243992 -0.873017 7.30998 
1.54655 -0.778134 6.5076 
0.352559 -0.409823 3.38726 
0.512444 -0.66942 5.50407 
0.364069 -0.650846 5.34973 
0.0814685 -0.614533 5.05958 
1.0579 0.424412 -2.85797 
0.233716 -0.486674 3.99234 
-0.725936 -0.61109 4.93703 
2.76375 -3.51077 27.9914 
0.389884 -0.938601 7.45033 
0.275005 -0.661752 5.25504 
-0.000479993 -0.632453 4.98032 
-0.338447 -0.64661 4.98469 
-0.626178 -0.662415 5.02312 
0.664206 -0.0733269 -2.47619 
-1.30109 -0.584138 4.32525 
0.343515 -0.72561 5.32737 
-1.81698 -0.165446 4.87831 
0.0685991 -0.697002 5.04961 
-1.53862 7.90694 -57.2775 
-1.73768 -0.331763 4.41604 
-0.211447 -0.673425 4.84933 
0.328144 -0.575332 4.11861 
0.159882 -0.725888 5.13434 
0.113464 -0.7188 5.08172 
-0.116596 -0.694321 4.86138 
-0.116596 -0.694321 4.86138 
0.342137 -0.597995 4.12385 
0.176994 -0.754894 5.14432 
0.176994 -0.754894 5.14432 
-0.0990929 -0.726418 4.87231 
-0.0990929 -0.726418 4.87231 
1.08807 -0.905121 5.93938 
-0.795637 -0.770874 4.82929 
1.01227 0.181549 5.79133 
-1.3596 -0.691377 4.31344 
-9.53073 -2.33784 29.1034 
-0.995983 -0.758305 4.62208 
-1.27977 -0.725545 4.34403 
-1.27977 -0.725545 4.34403 
-1.3036 -0.736726 4.30835 
-0.75756 -0.842247 4.86606 
1.97056 -0.939048 5.40821 
-0.661645 -0.926317 4.94013 
0.320891 -0.958626 4.99306 
-1.02751 -0.881259 4.59219 
0.428557 -0.943895 4.88076 
-0.59584 -0.599574 3.36825 
-1.26474 -0.772236 5.36943 
0.706976 -0.381335 3.4594 
0.913891 -0.920113 4.62611 
0.913891 -0.920113 4.62611 
1.77221 -1.11219 5.1848 
-0.0645136 -1.07443 4.85039 
-0.0645136 -1.07443 4.85039 
-0.0466933 -1.09624 4.86382 
0.510365 -1.08827 4.78868 
2.70962 -0.784161 25.6117 
0.0881317 -1.13755 4.98879 
0.0881317 -1.13755 4.98879 
-0.722032 -1.11019 4.85928 
-0.722032 -1.11019 4.85928 
-0.668409 -1.13485 4.91422 
-0.668409 -1.13485 4.91422 
0.84631 -1.06925 4.60599 
0.478797 -1.13308 4.8158 
-0.841977 -1.11995 4.73534 
-0.699384 -1.1588 4.88014 
-0.863825 -1.11888 4.71149 
1.97001 -1.28325 5.38538 
0.755124 -1.09142 4.57906 
-0.00326854 -1.16567 4.89372 
-0.511531 -1.20524 5.0389 
-1.22938 -1.04353 4.34636 
-1.8434 0.13239 5.04562 
0.465068 -1.16196 4.82474 
0.89397 -1.11308 4.60008 
-1.2226 -1.05725 4.34976 
-0.729607 -1.19146 4.82668 
-1.34743 -1.05082 4.25873 
0.908767 -1.14028 4.598 
0.908767 -1.14028 4.598 
0.908767 -1.14028 4.598 
-1.23267 -1.08034 4.34899 
0.162496 -1.25332 5.02132 
-0.278615 2.75843 -10.5632 
0.116541 -1.13342 4.50748 
-1.02389 -1.13889 4.54303 
0.277013 -1.2486 4.96982 
0.277013 -1.2486 4.96982 
0.208524 -1.26042 5.00644 
-1.16455 -1.11214 4.40549 
1.53396 -1.24399 4.91798 
1.53396 -1.24399 4.91798 
1.37879 -5.22994 19.7758 
1.37879 -5.22994 19.7758 
0.038424 -1.24062 4.89799 
0.374686 -1.23732 4.87111 
0.374686 -1.23732 4.87111 
0.0022359 -1.0858 4.25233 
1.74021 -1.29813 5.07599 
1.19262 -1.05903 4.07644 
1.19262 -1.05903 4.07644 
-14.3621 34.7293 -132.311 
-0.174314 -1.2166 4.69866 
0.0731231 -0.256451 1.65637 
0.653364 -1.2106 4.60106 
0.653364 -1.2106 4.60106 
0.672613 -1.20826 4.58172 
0.672613 -1.20826 4.58172 
0.69366 -1.20794 4.57352 
0.69366 -1.20794 4.57352 
1.18625 -1.20875 4.56857 
1.18625 -1.20875 4.56857 
0.876677 -1.20847 4.56823 
-1.60626 -1.15598 4.34741 
1.28668 -1.25031 4.60938 
0.911638 -1.10372 4.03419 
0.777815 -1.24456 4.53267 
1.05192 -1.24354 4.52616 
-2.44178 -1.33944 4.77646 
1.59154 -1.38281 4.80099 
-0.898842 -1.05239 3.43046 
1.58137 -1.38962 4.77038 
-1.28618 -1.2236 4.13299 
-1.13141 -1.3545 4.275 
1.26508 0.0255407 -2.47394 
-2.26093 -1.42319 4.42383 
-1.18072 2.03846 5.65946 
0.514326 2.64924 7.45492 
-2.37433 2.12695 6.17169 
-0.88489 2.07415 5.87613 
0.505463 2.55269 7.27448 
-0.0993866 2.33979 6.72578 
0.336127 0.315866 1.0706 
0.218939 2.45946 7.08621 
0.335685 0.319875 1.07965 
-1.91898 1.8049 5.3122 
-1.88511 1.70437 5.22989 
-2.18074 2.02023 5.51535 
-1.24487 1.78547 5.28731 
0.953668 -0.72848 -2.49954 
0.178129 2.25594 6.78319 
3.72229 3.20488 9.68933 
3.72229 3.20488 9.68933 
0.620979 2.33971 7.10094 
1.07664 -0.906711 -3.0049 
1.59737 2.68927 8.19981 
-1.06845 1.76654 5.39094 
1.37686 2.58532 7.97393 
0.0284156 2.12117 6.55334 
0.0284156 2.12117 6.55334 
-0.644505 1.88927 5.83651 
-0.222938 2.02265 6.27186 
1.42047 2.46731 7.87711 
-0.33923 1.85295 6.02712 
-0.844196 1.6909 5.50143 
-0.844196 1.6909 5.50143 
-1.93746 1.55676 5.08827 
0.542845 2.07109 6.78859 
0.613152 2.08823 6.8843 
-0.806106 1.67621 5.52288 
-0.806106 1.67621 5.52288 
0.952371 -0.570096 -6.56218 
-1.27053 1.52099 5.01652 
-0.363555 1.81355 5.98696 
1.03453 2.18821 7.37717 
-1.20762 1.49063 5.04453 
-1.60533 1.94608 6.71443 
-1.08901 1.51271 5.15525 
-1.04394 1.47904 5.18376 
-1.04394 1.47904 5.18376 
-0.520233 0.162344 2.96922 
-0.92388 1.46149 5.25962 
2.44428 2.3932 8.65199 
-1.24858 1.28315 4.87843 
-0.587233 0.16071 3.36142 
0.285036 -0.537178 -1.71472 
-0.965716 1.35173 5.17542 
-0.65953 1.4335 5.49119 
-1.79896 1.50424 5.10783 
-6.11563 4.89587 23.6761 
0.533715 -0.0422163 -2.09031 
2.43364 2.22197 8.56817 
-0.870826 1.36052 5.25383 
-2.08721 1.55219 5.50263 
2.42591 2.15634 8.54405 
0.34365 1.49203 5.95494 
0.845381 1.49622 6.14429 
-0.688112 1.30541 5.39806 
-0.614593 1.31718 5.46484 
-0.814461 1.26565 5.25737 
-0.955164 1.21769 5.11235 
-0.884964 1.22994 5.19087 
-1.00405 1.42318 6.36716 
-0.825359 1.22465 5.23963 
-1.50193 1.09527 4.75989 
-0.764839 1.20453 5.28991 
-0.764839 1.20453 5.28991 
-0.110907 1.34658 5.9432 
-0.882257 1.14565 5.13679 
-0.287952 1.27005 5.75588 
0.637568 -0.354813 -1.68958 
3.42525 1.7073 8.04636 
0.910554 1.3296 6.287 
-1.12022 1.01734 4.8753 
-0.625529 1.1201 5.38126 
-0.625529 1.1201 5.38126 
3.35217 1.83914 8.93413 
3.35217 1.83914 8.93413 
0.979836 1.25465 6.08954 
-1.00396 1.02242 4.98618 
-1.06412 1.01239 4.92996 
-1.93717 1.52377 5.11291 
9.63184 -19.2777 -69.9914 
-0.315745 -0.0029681 2.23488 
1.74496 1.48236 7.7327 
-0.379631 1.0717 5.5878 
0.965366 -0.537938 -2.52474 
1.8472 1.47824 7.82838 
0.208596 -1.60816 -7.20865 
0.506555 1.08073 5.88809 
-1.62147 0.880315 4.79434 
0.164547 1.02314 5.69639 
-0.623588 0.970431 5.3718 
0.622162 1.06549 5.98722 
0.728287 1.05383 6.09635 
-1.75229 0.241779 4.72303 
-1.64148 1.03062 4.49434 
-0.274256 0.958233 5.66049 
-1.04113 0.827076 4.88459 
0.822759 1.03864 6.16808 
0.155474 0.910133 5.51853 
-0.232882 0.944604 5.7059 
-0.270816 0.939636 5.67932 
-2.15641 1.29326 5.68463 
0.417386 0.901369 5.82002 
-2.05071 0.645464 5.36716 
1.73155 1.08476 7.64998 
0.50728 0.800416 5.81022 
0.50728 0.800416 5.81022 
0.449056 0.797613 5.81528 
0.49067 0.777196 5.79094 
-1.13405 0.623852 4.74215 
0.424462 0.752666 5.83747 
-1.69875 0.588598 4.73566 
1.0309 0.795048 6.31113 
0.520821 0.72408 5.74948 
-0.222515 0.712635 5.6681 
0.44259 0.66694 5.78008 
0.99168 0.719724 6.26588 
-2.00717 1.06532 5.27609 
0.920506 0.692436 6.31927 
0.839096 0.655563 6.2402 
-0.491727 0.551174 5.35971 
-0.491727 0.551174 5.35971 
-1.09809 -0.214955 4.45453 
-0.330454 1.12575 5.56855 
-0.351922 0.535845 5.51781 
0.816708 0.588079 6.2438 
-0.756802 0.45593 5.07653 
-2.154 1.07615 5.65884 
-1.31049 0.353638 4.49744 
0.790105 0.477085 6.17678 
0.790105 0.477085 6.17678 
1.09975 -0.503039 -3.04898 
-0.340771 0.559881 3.05543 
-0.602743 0.392135 5.22743 
-1.96395 -0.00258096 5.06407 
0.807033 0.447433 6.19618 
-0.489074 0.377285 5.3358 
-1.48066 0.323183 4.58915 
-0.424353 0.374297 5.3907 
-1.74752 1.02749 4.70717 
0.828705 0.390679 6.21208 
0.242569 0.341338 5.78924 
-1.76246 0.971676 5.00701 
0.44679 0.326791 5.66711 
-1.1 0.263922 4.70248 
-1.1 0.263922 4.70248 
-1.01704 0.264915 4.77506 
-1.07274 0.264309 4.73115 
0.868305 0.297029 6.14197 
0.912944 0.291079 6.13956 
0.937532 0.270935 6.14795 
0.882943 0.272572 6.1413 
-0.660639 0.222537 5.12837 
-1.92086 0.203403 4.68257 
-1.92086 0.203403 4.68257 
-1.92223 0.183875 4.68236 
-0.562775 0.187275 5.22697 
-0.132938 0.181612 5.10838 
-1.71039 0.872593 4.84135 
0.475644 0.151811 5.7896 
-1.38122 0.115004 4.45267 
0.992425 -0.314703 -2.73306 
-2.19568 0.981023 5.7546 
0.911369 0.108865 6.23579 
0.911369 0.108865 6.23579 
-8.871 -0.15257 22.2146 
0.627635 0.0849144 4.08027 
0.878089 0.0532658 11.7774 
0.113469 0.0531832 5.61274 
-0.919659 0.0412338 4.83651 
-0.919659 0.0412338 4.83651 
-0.220766 0.568789 -27.2726 
0.074402 0.141039 2.71245 
-3.626 4.54223 32.3993 
0.712006 -0.0430558 5.95321 
0.223055 -0.0585407 5.73435 
0.0718942 -0.0880715 5.53552 
0.0718942 -0.0880715 5.53552 
0.0718942 -0.0880715 5.53552 
0.516529 -0.197728 -1.29405 
0.0707335 -0.110528 5.52277 
0.0707335 -0.110528 5.52277 
0.672807 -0.17012 5.98496 
-1.76006 0.101818 4.78198 
0.0528421 -0.170112 5.51577 
0.955778 -0.427207 11.6944 
2.37444 -0.303616 8.03321 
-1.12065 -0.182934 4.58723 
0.844759 -0.264827 5.86033 
0.511499 -0.116288 0.932962 
0.838596 -0.293007 5.87716 
-0.0497583 -0.277225 5.36609 
-0.911088 -0.248971 4.7923 
0.0601056 -0.301249 5.52061 
0.0601056 -0.301249 5.52061 
0.731251 -0.326822 5.80369 
-1.94107 0.773754 5.07079 
0.749988 -0.338074 5.80823 
-0.693008 -0.291468 5.00283 
-0.0620619 -0.0860935 2.19476 
-0.658626 -0.323005 5.04307 
2.39984 -0.855845 7.95749 
0.229377 -0.383736 5.66724 
0.166808 -0.388763 5.6108 
2.75513 -0.598308 8.26222 
-0.743133 -0.360667 4.91337 
-0.200044 -0.382945 5.07416 
-1.78735 -0.0271144 4.82753 
-0.901178 -0.406513 4.77019 
-0.770096 -0.450352 4.92284 
-0.770096 -0.450352 4.92284 
-0.957901 -0.43534 4.72378 
-0.844298 -0.465141 4.82196 
-1.05039 -0.442997 4.62847 
0.591843 0.211995 -1.50637 
-0.606018 -0.489207 5.04901 
-0.606018 -0.489207 5.04901 
-1.70059 -0.448767 4.59013 
-1.46091 -0.449325 4.44131 
1.52161 -0.736002 6.48868 
2.37974 -0.912894 7.97736 
0.437485 -0.643923 5.42709 
0.380028 -0.640669 5.37196 
0.137632 -0.610714 5.12828 
0.85371 -0.700978 5.81248 
0.723261 -0.690439 5.70393 
2.35832 -0.862669 7.91423 
1.15983 0.474898 -3.20564 
0.239667 -0.642492 5.23631 
0.239667 -0.642492 5.23631 
0.0356527 -0.614652 5.00075 
0.109046 1.78916 -14.3756 
-0.706678 -0.613648 4.95133 
2.40623 -1.01557 7.9651 
0.269724 -0.680527 5.25936 
-0.536237 -0.667001 5.1135 
-2.18424 0.572896 10.5026 
2.37732 -1.04449 7.95577 
2.34383 -0.657526 7.87476 
-0.137442 -0.672259 4.84421 
0.74864 0.14355 -2.18808 
-1.73528 -0.583217 4.64872 
1.04769 -0.906452 5.89914 
-0.629605 -0.787591 4.99686 
-0.700608 -0.777291 4.89911 
1.45479 -0.997917 6.25889 
0.908862 -0.815527 5.10241 
0.4118 0.109906 1.21152 
-1.11108 -0.724093 4.51532 
0.293066 -0.344747 1.98072 
-0.809148 -0.784919 4.812 
0.526314 -0.00886654 -2.40073 
-1.01259 -0.758216 4.60506 
-1.18746 -0.735073 4.42607 
-1.18746 -0.735073 4.42607 
-1.00563 -0.773951 4.62007 
-1.04651 -0.771259 4.58105 
0.24074 -0.882458 5.04387 
0.460184 -1.49096 8.24933 
2.28904 -7.50334 40.9662 
0.764144 -0.722636 3.99172 
0.730789 -0.835066 4.59753 
-1.04822 -0.894248 4.57209 
-1.11644 -0.887393 4.49356 
-0.623363 -0.997974 4.97278 
-1.77412 -0.722354 4.71529 
1.85802 -1.12515 5.28804 
1.7279 -1.11605 5.1691 
0.104821 -1.13553 5.00381 
-0.747528 -1.12061 4.85269 
-0.747528 -1.12061 4.85269 
-0.113668 -1.11016 4.77638 
-0.67404 -1.15583 4.93697 
0.624507 -1.10342 4.67531 
-0.924432 -1.09947 4.64262 
-0.924432 -1.09947 4.64262 
-0.923165 -1.11975 4.65384 
-1.10432 -1.10072 4.47717 
-1.1853 -1.07977 4.38802 
-1.20482 -1.07511 4.3716 
-1.04332 -1.12511 4.5488 
0.908757 -1.14077 4.59895 
0.908757 -1.14077 4.59895 
1.51854 -1.05569 4.15562 
-0.867934 -1.17735 4.69307 
-1.61248 -1.13091 4.3649 
0.270909 -1.28451 4.93022 
-0.524173 -1.28757 4.91184 
1.7927 -1.61612 6.10971 
-1.25359 -1.14778 4.26277 
1.29262 -2.36873 8.51977 
-1.97553 -1.25527 4.5034 
-1.26744 -1.19635 4.15874 
-1.15954 -1.33288 4.25606 
-1.23844 -1.33678 4.16888 
-1.24335 -1.35992 4.15153 
-1.29266 -1.34768 4.10578 
-12.7622 3.15616 35.9089 
0.440878 2.55724 7.25863 
2.63956 3.37639 9.75001 
-0.997665 2.00731 5.724 
1.03722 -0.29026 -2.73761 
0.952234 -0.744305 -2.49378 
-1.88539 1.28373 4.81963 
-1.29709 1.80312 5.27398 
-1.78152 1.74949 4.84052 
-2.2945 1.97912 6.01163 
0.397898 2.15404 6.7901 
2.48883 2.7684 8.91071 
0.537979 2.02969 6.7527 
0.537979 2.02969 6.7527 
0.956286 -0.733394 -2.70555 
-11.9801 1.95261 33.7654 
0.186742 1.90727 6.48414 
-1.59355 1.53793 4.50768 
1.94586 -0.35534 -5.49043 
-1.80592 1.47496 5.13269 
-6.84922 5.56648 17.4039 
-1.98936 1.43857 5.04228 
-1.65922 1.16437 4.49785 
0.130262 1.73034 6.32508 
0.130262 1.73034 6.32508 
-1.59585 1.28188 4.47484 
-11.8338 1.39368 33.335 
0.57618 1.65989 6.24571 
-1.94086 1.3972 4.99483 
0.442742 0.3241 1.10635 
-1.9532 1.36958 5.02035 
1.30909 1.87081 7.42768 
1.04444 -0.14036 -2.75883 
3.37692 2.19467 9.02837 
-1.43258 1.12071 4.68633 
0.029804 1.40641 6.06996 
-0.0128612 1.37924 6.0116 
-0.81816 1.19698 5.24407 
0.544995 0.726382 3.1974 
0.380201 1.29752 5.75612 
0.834469 1.38234 6.17531 
-2.19582 1.62502 5.79923 
2.30104 2.14087 7.96588 
3.38258 1.94367 8.95075 
-1.17238 1.04583 4.83936 
-0.0137011 1.2739 5.96486 
-1.0417 1.01919 4.95504 
-1.0417 1.01919 4.95504 
-0.971559 1.01626 5.0155 
-0.951035 0.991509 5.02423 
1.6192 1.49184 7.60177 
1.6192 1.49184 7.60177 
2.40477 1.64516 8.39518 
-1.41864 0.885387 4.62819 
0.965779 -0.528673 -2.52718 
0.547463 1.07369 5.89456 
-0.142819 1.05864 5.81991 
0.263664 1.03808 5.76121 
0.658116 1.06184 6.00897 
1.06377 1.01253 6.4109 
2.3865 1.25597 8.28886 
0.485571 0.867052 5.75702 
0.608663 0.870534 5.88524 
0.58717 0.843088 5.88444 
0.412356 0.837997 5.84121 
-0.578418 0.763825 5.32011 
-1.06815 0.616067 4.80919 
-0.575859 0.292626 2.65836 
-0.575859 0.292626 2.65836 
-1.11445 0.604832 4.74918 
-1.05709 0.592956 4.814 
2.39673 0.98408 8.27424 
-0.78946 0.594558 5.08857 
-0.651596 0.602137 5.2256 
-0.651596 0.602137 5.2256 
1.34826 0.745829 6.63779 
-1.73502 0.222112 4.36888 
-0.769806 0.439722 5.07449 
-0.889316 0.408677 4.94112 
-1.92608 0.91592 4.93829 
-1.92608 0.91592 4.93829 
-0.70599 0.414429 5.13727 
-1.96436 0.0155107 5.0651 
1.18692 0.171492 -3.20293 
0.81148 0.420058 6.20337 
0.81148 0.420058 6.20337 
0.418471 0.348895 5.67487 
0.739062 0.102725 -2.03149 
-1.92626 0.850385 4.93625 
2.38068 0.434572 8.15081 
-0.734543 0.237239 5.07544 
-0.734543 0.237239 5.07544 
2.38107 0.376095 8.14094 
-0.495418 0.210391 5.29315 
-0.495418 0.210391 5.29315 
-0.557312 0.20841 5.24206 
-0.557312 0.20841 5.24206 
0.731905 0.221501 6.0867 
0.838538 0.282419 -2.34671 
-1.81171 0.287318 4.7061 
1.231 0.113222 -3.2975 
-0.137935 0.132883 5.06646 
-1.10172 0.0835009 4.65399 
-1.10172 0.0835009 4.65399 
-0.688107 0.0564993 5.06085 
-1.95076 0.73366 4.97272 
0.675379 0.00962793 6.02651 
-0.569025 0.00312768 5.17918 
1.6045 -0.0354964 6.80184 
-0.247738 -0.0530895 5.10771 
-1.95277 -0.0866857 5.2 
-1.77426 -0.0488925 4.42508 
-1.13846 -0.131106 4.58911 
-2.02665 0.0155203 4.96466 
0.788178 -0.181954 5.95897 
0.800537 -0.209347 5.90414 
-1.80384 -0.157998 4.60169 
0.784057 -0.241485 5.85631 
0.741369 -0.273451 5.84643 
0.741369 -0.273451 5.84643 
-1.37778 -0.210295 4.40291 
0.600682 -0.296927 5.78125 
-2.40252 -0.699892 6.39855 
2.38 -0.485887 8.02106 
-1.69772 -0.6462 4.2945 
0.540282 -0.411007 5.78329 
-0.707476 -0.374681 4.972 
-1.44791 -0.334094 4.42371 
-3.16151 0.979226 9.14741 
2.38136 -0.652691 8.02185 
-1.15922 -0.37668 4.51299 
-0.803229 -0.442205 4.85357 
-0.736194 -0.45801 4.96399 
-1.9216 -0.134155 4.81269 
2.37271 -0.783397 7.99229 
0.808173 -0.670424 5.77881 
1.2115 -0.0964344 -3.20269 
1.69149 -0.801228 6.65843 
1.58234 -0.790021 6.52544 
1.41165 -0.771245 6.3713 
0.612201 -0.687011 5.60032 
0.341987 -0.657359 5.32855 
1.22762 0.381909 -3.22517 
-1.96565 -0.403968 4.89022 
1.76114 -0.888681 6.70197 
-1.81985 -0.163053 4.88305 
-1.87416 -0.676793 4.67505 
-0.928949 -0.706108 4.69701 
-1.97716 -0.452373 4.90928 
0.17285 -0.835906 5.03982 
0.257123 -0.858881 5.02748 
