ply
format ascii 1.0
element vertex 1776
property float x
property float y
property float z
element face 0
property list uchar int vertex_index
end_header
-1.10307 -0.766543 4.10358 
2.39655 -8.45578e-05 8.03247 
1.73092 1.3829 7.2168 
0.419829 1.6538 5.27611 
-0.307602 0.359304 4.96472 
-1.10307 -0.766543 4.10358 
-0.791451 -0.623242 4.46108 
-1.03705 -1.18442 4.03241 
0.366266 -0.620355 5.10807 
2.2822 1.91352 7.35628 
0.98857 1.19363 5.72735 
1.7828 1.73521 7.16634 
-0.536463 0.981266 4.53544 
-0.395698 1.34415 4.48397 
-0.599185 0.714733 4.56274 
3.35351 1.85604 8.75838 
1.16212 -1.18463 4.52316 
-0.241916 0.633178 5.00479 
-0.623925 1.2115 4.29643 
-0.806548 0.244525 4.39396 
2.41864 0.0522158 8.065 
-0.687226 -0.882819 4.58147 
-0.437105 1.24709 4.50203 
-0.54179 -0.467609 4.73952 
-0.337771 0.494304 4.91467 
1.36113 -1.70788 6.45028 
-0.335801 1.1295 4.72035 
1.86825 0.134425 7.44645 
0.030417 1.1618 5.17009 
-0.895101 0.0789641 4.30458 
-0.977007 0.453378 4.15139 
-0.907712 1.0857 3.99291 
0.0827744 1.07668 5.26777 
0.42196 -0.749477 5.17618 
1.84374 1.04386 7.4088 
1.77392 1.37757 7.25343 
1.25195 -1.19852 4.56013 
-0.812325 1.05697 4.14196 
-0.501643 1.08129 4.52816 
-1.03114 -0.201315 4.16833 
2.05556 1.1886 7.63276 
-0.795252 -0.860803 4.46664 
-0.802836 -1.0671 4.45841 
0.662109 -1.18615 4.54054 
1.12733 1.22354 5.79485 
1.77321 0.138918 7.34339 
-0.231506 0.346185 5.05234 
-0.638159 1.24126 4.22282 
-0.727311 0.885811 4.33829 
-0.276837 0.649609 4.9527 
-0.662388 -0.840692 4.60907 
0.114956 1.56607 4.93963 
0.939723 -0.88349 5.64373 
-0.435914 -1.23912 4.74563 
-0.502968 1.04346 4.55591 
0.732957 -0.811337 4.48839 
0.839723 0.960282 5.68488 
0.753288 -0.854991 5.43135 
-0.603315 0.699205 4.55569 
-0.607716 1.18711 4.32156 
0.758795 -0.346677 5.62305 
1.64605 2.00489 6.73594 
1.73652 1.51494 7.18699 
-0.697154 0.890122 4.37131 
2.25439 -0.140054 7.13496 
-0.458369 0.548521 4.76806 
0.846084 -1.06976 4.519 
2.41246 1.17019 8.04465 
-0.432972 0.674069 4.77042 
-0.670565 -0.144966 4.59275 
0.434676 -0.512868 5.36175 
0.983802 1.09988 5.69149 
0.186779 -1.24395 4.80508 
-0.947221 -0.178075 4.27238 
-0.305508 1.46271 4.44733 
0.0552097 1.17896 5.19676 
2.30633 0.819874 7.49058 
2.5126 1.01984 9.40093 
-0.37388 1.13218 4.66637 
2.69232 1.67186 8.27667 
-0.816744 -0.595539 4.44816 
0.297856 -0.0535197 5.4562 
1.96149 -0.840018 7.51033 
-1.10292 -1.29319 3.96802 
3.36382 1.90431 8.7676 
-0.323946 1.12455 4.74254 
-0.727311 0.885811 4.33829 
3.30707 2.73614 15.6412 
-0.609306 -0.337372 4.65417 
0.494559 1.15352 5.13677 
0.870105 1.78061 5.80265 
0.87236 0.374441 5.9253 
0.719143 -0.33937 5.62706 
-0.738738 0.0403698 4.49751 
-0.681902 0.374347 4.52792 
2.46382 2.54819 8.88215 
-0.902702 0.927953 4.09252 
1.84446 1.36257 7.35872 
2.20579 0.937402 7.8346 
2.72888 1.19221 8.34611 
-0.0695992 0.960664 5.11694 
0.656625 -0.664295 5.44362 
-0.69557 -1.07631 4.58159 
2.83504 -0.0875139 9.01179 
-0.81531 -0.252096 4.42252 
-0.216395 1.46168 4.57902 
1.91676 1.61902 7.37599 
-0.368998 1.33755 4.5181 
1.76957 -1.29369 5.07002 
2.73583 -0.913102 8.28333 
-0.609306 -0.337372 4.65417 
1.52886 0.854483 7.05473 
2.05378 1.62373 7.56171 
0.219523 -0.297637 5.361 
-0.884406 -0.398501 4.35854 
1.82888 1.38512 7.33557 
0.492809 0.0526723 5.50935 
1.00464 -1.02542 4.52744 
-1.10538 -1.27431 3.99726 
-0.406463 0.904821 4.74445 
-0.0747534 1.33383 4.93346 
-0.739496 0.718994 4.38117 
-0.46343 0.885513 4.66323 
-0.31247 1.02566 4.79306 
0.488173 0.331706 5.36455 
2.12202 1.48008 7.65972 
-0.561486 0.221503 4.70374 
1.7478 1.89623 7.00184 
-0.852499 -0.250154 4.37936 
1.52886 0.854483 7.05473 
-0.0405567 -0.8515 4.64155 
1.50062 1.92217 6.61822 
-1.08258 -1.0221 4.13892 
0.324447 0.323772 5.46065 
1.21493 -1.19206 4.51736 
-0.519593 -0.000966697 4.74235 
1.90205 -0.0535946 7.49551 
-0.928042 -0.404306 4.30327 
2.32214 2.24013 7.51143 
0.383504 1.51903 5.39484 
2.52218 -1.68345 7.85652 
0.810369 -0.267911 5.64492 
2.71735 -0.92952 8.26986 
-0.540826 -1.11446 4.74973 
0.677785 0.06327 5.75842 
2.1512 0.392271 7.76192 
-1.07221 -1.26184 4.01077 
-0.548059 -0.154616 4.72908 
-0.626682 -1.04212 4.6401 
-0.475335 1.03972 4.59899 
1.99683 0.748815 7.59371 
2.67191 1.68434 8.26384 
0.852508 0.427562 5.89469 
0.826161 1.28942 5.46718 
1.77321 0.138918 7.34339 
-0.06761 1.49461 4.76099 
-0.686284 0.886799 4.37938 
-0.625321 -1.13998 4.6419 
-1.08481 -0.0565648 4.0933 
0.535905 1.65204 5.47543 
2.06995 -0.0733295 7.65379 
-0.72222 -0.895038 4.54472 
-1.0433 -0.697375 4.18378 
-0.0966693 1.23051 4.96242 
-0.0432639 1.45909 4.87197 
0.501384 -0.762551 5.27434 
0.168596 0.0369397 5.30114 
2.41665 -0.11512 8.04991 
1.53399 1.64108 6.88549 
-0.57827 1.02916 4.45514 
0.197292 -0.550927 4.93488 
0.554839 -1.05933 4.67562 
-0.132525 0.947033 5.04215 
-0.475335 1.03972 4.59899 
-0.900257 0.0565908 4.30944 
2.71498 -0.780156 8.28005 
0.783818 -0.261393 5.65728 
-0.0182354 -0.332127 5.11117 
2.29514 1.99093 7.44356 
-0.486041 -0.460817 4.79836 
-0.769406 -0.164277 4.48779 
0.905881 1.75416 5.89757 
0.553967 1.64884 5.4883 
-0.370788 1.36446 4.49034 
1.0643 1.09488 5.79971 
3.32829 2.12042 8.73128 
0.664113 -0.00714967 5.71768 
0.709592 0.181118 5.77785 
-0.113088 0.490651 5.17329 
-0.539584 -0.284642 4.75169 
-0.616091 -0.755945 4.67691 
2.66744 -0.950773 8.23795 
-0.553539 1.35291 4.24254 
-0.0489759 1.10469 5.10203 
1.75247 -1.10445 5.13037 
1.21968 -1.18432 4.53752 
0.979433 0.5756 5.9416 
-0.595545 -0.592482 4.7006 
-0.616984 0.880292 4.4691 
0.860994 -0.298426 5.66888 
0.0886982 1.06514 5.28072 
2.02316 0.606025 7.63124 
-0.852882 0.543637 4.28489 
0.767468 -0.235141 5.65376 
-0.872011 -0.149954 4.34487 
2.55106 1.21427 7.36963 
-0.493563 -0.90425 4.79593 
2.71695 -1.04924 8.27974 
0.746884 1.12004 5.40483 
0.74554 0.793652 5.51706 
2.08012 0.896154 7.66506 
-0.604823 1.12953 4.36016 
-0.616417 1.11794 4.36215 
0.76424 -0.792871 5.56025 
-0.910944 -1.06819 4.34422 
-0.48389 1.0136 4.59285 
-0.198571 0.491699 5.07465 
-0.117261 1.12018 5.00372 
-0.810863 0.76448 4.28161 
-0.902702 0.927953 4.09252 
-0.790497 0.882035 4.25882 
-0.669907 -0.729256 4.59951 
0.513972 0.311218 5.36422 
0.798878 0.488654 5.82467 
-0.523176 -0.609204 4.76942 
1.53627 1.38039 6.97115 
-0.711446 0.329799 4.49819 
-0.411461 0.348801 4.83772 
-0.596152 -1.10834 4.6928 
-0.831546 -0.197361 4.39822 
-0.723979 0.0495355 4.51723 
-0.342588 0.673678 4.86628 
-0.716356 -1.07385 4.55561 
-0.946923 -1.07334 4.28745 
2.00477 -0.710385 7.56239 
-0.279559 0.348328 5.00947 
2.07151 1.17199 7.64874 
1.943 0.110587 7.5322 
0.853826 -0.85885 5.55438 
-0.19981 0.96081 4.95913 
2.37669 2.57395 8.06044 
1.60625 -1.24124 4.9459 
1.53869 -1.26616 4.81521 
-0.585841 0.877036 4.53706 
0.42196 -0.749477 5.17618 
2.18674 1.51545 7.73401 
-0.198571 0.491699 5.07465 
0.150856 -0.588045 4.87509 
-0.657241 0.390999 4.55706 
1.02808 -0.821796 5.85007 
0.660025 0.977503 5.46841 
1.19622 -0.919265 5.91805 
3.35859 2.7137 15.9777 
-0.501998 -0.133116 4.78506 
1.19622 -0.919265 5.91805 
0.655063 -0.34009 5.57893 
-0.796022 0.753181 4.30427 
0.284787 0.364708 5.38942 
1.87281 0.423863 7.45445 
-0.768618 1.21853 4.07558 
-0.313011 1.02604 4.7949 
0.0215487 0.94758 5.22776 
-0.662388 -0.840692 4.60907 
0.0401984 1.08434 5.20987 
-0.623925 1.2115 4.29643 
-0.685894 -1.01945 4.58856 
2.71629 -1.00556 8.27106 
0.14516 -0.198357 5.27339 
1.12786 1.73617 6.25872 
-0.0405567 -0.8515 4.64155 
-1.02384 -1.19029 4.06889 
-0.829527 0.543318 4.32216 
0.800217 -0.222555 5.65898 
1.943 0.110587 7.5322 
-0.597024 -0.883574 4.69648 
0.93045 -0.989435 4.52351 
0.773264 0.0719264 5.79806 
-0.480089 -0.29546 4.82546 
-0.553539 1.35291 4.24254 
-0.563687 0.418535 4.65817 
0.763805 -0.668926 5.55271 
0.779585 0.495437 5.80149 
-1.04348 0.0845977 4.1329 
1.57223 -0.766178 6.43818 
-1.09471 -0.819 4.10778 
1.79641 1.36346 7.30759 
-1.55567 -0.630684 4.24278 
-0.638159 1.24126 4.22282 
1.22155 1.74102 6.3891 
-0.277926 1.12221 4.79522 
-0.576218 -0.987001 4.69503 
0.941784 0.349074 5.99609 
-0.57173 -0.732797 4.70906 
-0.430562 -0.518336 4.86612 
0.13473 -0.159314 5.25799 
-0.812325 1.05697 4.14196 
-0.860825 -0.405028 4.39748 
0.346893 1.58073 5.27134 
3.1428 -1.18175 8.76294 
1.77545 0.307763 7.34982 
-0.715006 -0.594835 4.55965 
0.930798 0.067241 5.99149 
0.556392 1.65627 5.4645 
0.127382 0.0422134 5.24929 
-0.887397 -0.413359 4.36017 
1.75303 -1.04488 5.14594 
-0.827474 -1.09075 4.43268 
-0.832027 -1.06357 4.43371 
2.16361 1.19396 7.76174 
-0.545598 0.163064 4.70635 
0.664113 -0.00714967 5.71768 
1.09131 -0.709406 5.9288 
3.55871 1.995 8.87343 
-2.91585 0.165151 5.35009 
-0.523348 0.381284 4.72959 
-1.10535 -1.21684 3.97355 
2.35872 1.40184 7.9796 
-0.464407 1.34594 4.3836 
0.180527 -0.58579 4.90516 
-1.00973 0.238398 4.14518 
-0.43374 0.362338 4.82625 
3.29796 1.94173 8.81565 
2.3795 1.50521 7.98933 
-0.687302 0.223506 4.54339 
1.64402 0.153561 7.2128 
1.85071 1.18488 -4.01254 
1.92452 1.36268 7.46064 
0.94185 -1.11619 4.5165 
-0.492039 -0.65598 4.8006 
0.0964781 -0.913685 4.78667 
2.05777 1.8138 7.48125 
-0.822096 -0.462896 4.42372 
-0.77678 0.767458 4.3171 
-0.638496 -1.07003 4.65675 
-0.656584 0.366157 4.5597 
1.63878 1.39133 7.12592 
1.53827 1.92198 6.68108 
1.83428 0.297724 7.41791 
0.154307 -0.0805578 5.26988 
0.905935 1.73567 5.94241 
-0.752575 -1.12377 4.50128 
0.0926148 -1.1316 4.77971 
1.27492 -0.308771 6.54898 
2.47686 2.27058 9.06766 
0.750655 -0.310535 5.63118 
1.87556 1.04071 7.44034 
3.34865 1.8135 8.80447 
1.59051 -0.952355 6.0843 
0.791533 -0.322928 5.6312 
-0.88017 0.429926 4.27972 
-0.907566 0.0762869 4.29457 
-0.789069 0.765196 4.3006 
-1.0011 -1.04306 4.23231 
0.979163 1.21576 5.72918 
-0.954186 -0.0931212 4.2505 
2.72815 -0.575187 8.30407 
-0.326806 0.682612 4.88786 
-0.779887 -1.20134 4.34692 
-0.674702 -0.123008 4.57968 
-0.905742 1.09425 3.98678 
0.080022 1.56106 4.88877 
-0.647705 -0.147559 4.61884 
2.41459 -0.910921 7.99789 
2.19855 1.79023 7.68147 
2.12542 0.497546 5.98228 
1.67045 0.142332 7.22527 
-0.946498 -0.237441 4.28719 
2.75478 -1.43539 8.24268 
0.836746 0.454505 5.87187 
-0.665551 0.870631 4.43877 
2.17943 -0.307667 7.76919 
0.961473 0.655902 5.97032 
1.72224 1.7399 7.10908 
1.78142 1.52156 7.24416 
-1.0155 -1.04097 4.22118 
0.923988 -0.76289 5.73843 
2.73337 -0.99805 8.27349 
0.320486 1.45335 5.35171 
1.60625 -1.24124 4.9459 
-0.473666 -0.307516 4.83105 
0.222965 1.55066 5.14325 
-0.484486 0.740803 4.68761 
-0.3938 0.889258 4.76773 
0.0844159 1.38569 5.10029 
-0.827261 1.07082 4.11564 
1.83428 0.297724 7.41791 
-1.02399 -1.05541 4.20374 
-0.738826 -0.806442 4.52588 
-1.55044 -0.519969 4.24305 
0.983417 -1.0469 4.52403 
-0.312938 0.345267 4.95411 
2.71091 -1.49788 8.23577 
0.346893 1.58073 5.27134 
-0.969299 -0.838103 4.27071 
1.51027 1.38233 6.95122 
-0.117049 1.46084 4.73304 
-0.762303 0.719122 4.35187 
-0.862422 -0.729716 4.38665 
1.82134 1.2215 7.36315 
-0.699596 -0.394532 4.55849 
-0.497015 -0.66924 4.79694 
0.686712 -0.0328245 5.71392 
2.02316 0.606025 7.63124 
-0.500806 -0.431144 4.79925 
2.70856 -0.433683 8.30109 
1.85434 -0.353529 7.43028 
-1.07779 0.148566 4.08794 
0.28228 -0.962752 3.8483 
-0.520508 -0.953603 4.77463 
0.892829 1.78854 5.83009 
0.949091 0.106898 6.00671 
1.69201 0.459144 7.25758 
-0.720909 1.24818 4.10735 
-0.563273 -1.12125 4.73106 
-0.442947 0.675871 4.76124 
-0.35214 -0.399008 4.9509 
-0.75403 1.21134 4.11686 
-0.512677 -1.05347 4.78366 
0.786405 0.519606 5.79852 
1.02808 -0.821796 5.85007 
0.930798 0.067241 5.99149 
-0.230282 1.46176 4.56126 
2.83687 -0.115556 9.02003 
2.22175 1.17833 7.83839 
-0.501998 -0.133116 4.78506 
1.2104 1.80506 6.31485 
-1.06001 -0.567908 4.15675 
-0.523771 -0.933429 4.77961 
2.54623 -1.68466 7.82757 
0.234032 -0.805151 4.87928 
2.64217 2.17072 8.00811 
-0.497313 1.20576 4.45678 
-0.278247 0.993143 4.84713 
-0.945952 -0.119494 4.2775 
1.6604 1.17922 7.15893 
-1.06153 -1.03184 4.16899 
-0.406363 0.0235953 4.87492 
0.832721 0.489746 5.85256 
1.59253 1.83918 6.83029 
-0.423762 -0.42832 4.86869 
-0.417824 1.34842 4.44377 
0.50104 0.119777 5.4982 
-0.509283 -0.626293 4.78442 
-0.0644683 0.834338 5.16857 
1.45875 -0.827687 6.32146 
2.19802 0.0613357 7.81537 
-0.899298 -0.576178 4.34939 
-0.751923 -0.148285 4.5057 
0.486027 -0.325093 5.49907 
1.54908 -0.235702 -0.476742 
0.21023 -1.24621 4.83022 
-0.900895 0.236834 4.29166 
-0.646909 -0.767784 4.6295 
-0.574298 -0.789237 4.70472 
0.439823 1.5677 5.42753 
1.66583 2.00156 6.75615 
-0.0977517 1.46036 4.7622 
1.87833 -0.264108 7.4396 
-0.335801 1.1295 4.72035 
-0.537381 1.15005 4.44018 
-0.802544 -1.04727 4.44436 
-0.0943333 -0.314384 4.85844 
1.96758 1.3578 7.51444 
-0.57369 1.07806 4.43486 
0.1966 0.0521393 5.32846 
-1.00362 -1.29254 4.09934 
1.34661 -0.939823 6.09774 
-0.526079 0.178998 4.73614 
1.32374 -0.316819 6.60605 
-0.770012 -0.11939 4.47872 
-0.647404 1.05928 4.37287 
0.656756 -0.324652 5.58446 
0.667081 1.12669 5.31167 
-0.692831 0.207181 4.53274 
1.97679 1.78202 7.39066 
0.060683 -0.910954 4.76095 
-0.564985 0.69519 4.60736 
1.03701 1.20596 5.80453 
0.983389 1.73436 6.06544 
0.249781 0.00831152 5.39054 
-0.768618 1.21853 4.07558 
0.161315 -0.57875 4.89264 
0.361557 1.44924 5.42658 
-0.470792 0.982442 4.62331 
0.725502 -0.141679 5.79014 
0.820893 0.471352 5.84886 
-0.507392 -0.506209 4.78742 
-0.607842 -0.158835 4.66137 
1.12787 1.73636 6.25954 
-1.6715 -0.267685 4.21703 
-0.0677203 0.852386 5.16233 
2.50152 2.39183 9.25143 
-1.10535 -1.21684 3.97355 
-0.596875 1.04917 4.42639 
-0.507392 -0.506209 4.78742 
0.0439857 1.54381 4.8572 
1.01938 -0.0882911 6.09792 
0.154307 -0.0805578 5.26988 
-0.525604 -0.301752 4.76484 
-0.670927 -0.709554 4.60852 
-0.957035 0.0615895 4.24507 
-1.28238 1.15859 4.13293 
-0.475016 1.15225 4.53258 
-0.596875 1.04917 4.42639 
0.721237 -0.294175 5.65757 
-0.976188 -0.191473 4.23368 
0.611568 1.0002 5.31661 
1.08518 1.65094 6.27628 
-0.51901 -0.747722 4.77746 
-0.0770776 0.653298 5.20281 
0.591979 -0.664127 5.36602 
-0.342144 1.34506 4.54528 
-0.809854 0.961894 4.18557 
-0.486041 -0.460817 4.79836 
0.0291663 1.33194 5.07549 
-0.393967 0.0120831 4.90367 
2.00871 -0.49218 7.57627 
-0.850038 0.769099 4.22768 
0.724536 -0.645705 5.51755 
-0.144204 1.45365 4.71848 
0.500658 1.63608 5.43449 
2.00907 0.945662 7.58996 
-0.899315 -0.726637 4.3461 
2.22474 -0.673882 7.80165 
-0.421819 0.98835 4.66385 
0.153019 -0.309858 5.29869 
1.54023 0.840404 7.06962 
-0.0908916 -0.0831923 4.85833 
0.349675 -0.63535 5.09869 
0.195226 0.0742824 5.31883 
0.783818 -0.261393 5.65728 
-0.100086 1.34354 4.87981 
-0.70203 -0.435869 4.56034 
2.37912 1.64698 7.95512 
-1.11939 -1.13438 3.9646 
2.02458 -0.954551 7.56762 
2.16093 -0.0822582 7.76516 
-0.63764 -0.147716 4.63459 
-0.717201 0.0455308 4.52795 
1.53684 -0.570262 6.65716 
0.172208 1.31883 5.27733 
1.50162 1.0419 6.98334 
-0.662334 0.373922 4.55414 
0.0192286 1.46451 4.93086 
0.486389 -0.41479 5.49879 
-1.1354 -1.15939 3.93694 
1.64829 0.326304 7.21418 
1.73244 1.03654 7.30246 
-0.544108 1.36432 4.22873 
0.770328 1.13081 5.40138 
0.0356157 1.17711 5.16543 
-0.52692 -0.622969 4.76782 
-0.404515 1.23304 4.54824 
-0.697696 0.0183718 4.5575 
1.67045 0.142332 7.22527 
0.589956 -0.393621 5.593 
-1.63114 -0.274672 4.23889 
1.16506 1.55617 6.44945 
0.01231 1.15882 5.12591 
0.923988 -0.76289 5.73843 
-0.6366 1.04639 4.38542 
1.63878 1.39133 7.12592 
1.59369 1.72123 6.90055 
-0.427558 0.989663 4.63749 
2.86408 2.59085 12.6434 
-0.742164 -0.815093 4.52413 
-0.707556 -0.140069 4.54639 
-0.214157 -2.63668 9.74969 
2.17549 0.405614 7.81037 
1.42288 -1.1237 4.77512 
-0.91809 0.249662 4.27116 
0.017685 1.17433 5.15272 
1.98429 1.80108 7.3904 
0.948789 -0.0799304 6.01732 
-0.564985 0.69519 4.60736 
-0.747747 1.20867 4.127 
-0.499288 -0.754023 4.79561 
-0.937647 -0.216236 4.28774 
1.93585 -1.18705 5.34261 
2.32329 2.86634 -10.0839 
-0.0498095 1.31697 4.96023 
2.3327 0.909522 7.9726 
-0.575805 0.403268 4.65667 
-0.473529 -1.06042 4.83006 
-0.393744 0.98332 4.71754 
2.09528 0.434464 7.71341 
-0.567729 -1.08673 4.72925 
1.38883 1.91265 6.44557 
0.409286 -0.716945 5.17072 
0.859353 -1.08726 4.51662 
-0.60185 -0.894977 4.69462 
-0.090733 1.01104 5.08158 
0.314832 -0.0760494 5.47123 
-0.935774 -0.144624 4.28846 
-1.09292 -0.220002 4.10372 
1.30485 -1.04802 4.64564 
-0.0141317 1.47865 4.86657 
1.50488 1.52387 6.88949 
1.48619 0.547468 7.01171 
-0.171271 0.833951 5.0424 
2.15274 1.19391 6.24542 
0.971072 0.100934 6.01763 
-0.221966 0.633975 5.00945 
0.757047 0.987438 5.57401 
0.519422 -0.00381516 5.51953 
1.41902 1.05739 6.89729 
-0.990088 -0.667339 19.2765 
0.843027 0.9789 5.67497 
0.875296 0.961689 5.71855 
0.658012 -0.730718 5.44625 
-0.461709 0.532969 4.78602 
1.00228 -0.991253 4.52942 
0.707478 -0.136965 5.78861 
-0.958308 -0.125483 4.25665 
1.98953 -0.282241 7.56849 
-0.813861 -0.222554 4.41551 
0.563025 0.821673 5.32385 
1.18507 1.80564 6.28643 
0.862874 -1.03041 4.52335 
-0.371393 1.11923 4.67614 
-0.544065 -0.454818 4.73846 
0.156029 -0.718572 4.87643 
-0.582785 0.885046 4.53257 
-0.46825 0.992907 4.62673 
0.974885 0.262264 5.89722 
0.140282 -0.144683 5.2528 
0.453064 1.64895 5.3187 
1.77517 0.291711 7.36055 
-0.552727 1.05206 4.49249 
0.068098 -0.166176 5.20092 
-0.403603 0.669153 4.79494 
-0.60238 1.15325 4.35769 
1.46899 1.6395 6.79209 
-0.0192188 1.19817 5.08799 
-0.903199 -0.844009 4.34151 
-0.0770776 0.653298 5.20281 
2.71185 0.974019 8.34731 
-0.0804444 0.762262 5.15236 
0.24033 -0.147932 5.27421 
1.18081 -0.0815896 6.4354 
1.19601 1.88938 6.16594 
-0.451516 1.04173 4.62338 
-0.0711329 1.08829 5.07382 
-0.607716 1.18711 4.32156 
2.80898 -1.37916 8.23806 
0.927342 -1.09137 4.52319 
-0.572021 1.1951 4.36038 
0.0602205 -0.727817 4.75821 
2.3996 1.17609 8.04022 
-0.944734 -0.397593 4.28678 
2.24405 1.83432 7.24167 
-0.938591 -0.106102 19.1678 
0.986218 1.75577 6.03172 
0.0336225 1.39673 5.0138 
0.949091 0.106898 6.00671 
1.15504 -0.714302 5.97306 
-0.652173 1.05481 4.37091 
2.03757 -0.0807193 7.62413 
0.793083 0.700789 5.73201 
-0.545004 -0.44429 4.73538 
2.79478 -0.597352 8.30204 
1.53849 0.330541 7.07711 
2.01064 2.12917 7.1539 
1.82134 1.2215 7.36315 
1.32168 1.6113 6.61094 
-0.91993 0.37987 18.9234 
1.14804 1.78932 6.22267 
0.223427 1.36743 5.29718 
1.99591 -0.0779571 7.58171 
0.713624 0.496722 5.72377 
-0.55378 0.0694524 4.71666 
1.57359 0.116213 -0.627558 
0.820262 0.0585531 5.78587 
-0.51675 0.307166 4.72226 
1.38835 1.40016 6.79807 
-0.483309 0.694711 4.70956 
1.61436 -1.03214 4.98884 
-0.51901 -0.747722 4.77746 
-0.132207 0.801796 5.08309 
0.690851 -0.132733 5.7803 
2.21629 0.408098 7.8387 
0.030417 1.1618 5.17009 
-0.430093 -0.633129 4.88972 
0.159499 -0.995281 4.86296 
1.32374 -0.316819 6.60605 
1.85363 1.62792 7.2928 
0.13442 1.45304 5.11973 
-0.675351 1.35661 4.03941 
1.67486 -1.09115 5.03685 
-0.88527 -0.134861 19.2009 
1.48067 -0.980493 6.18496 
2.31005 0.916114 7.93719 
-0.853951 0.243385 4.34634 
1.83154 1.145 7.37536 
2.11139 1.00972 5.88029 
-0.990088 -0.667339 19.2765 
-0.831724 -0.250322 4.40091 
1.53827 1.92198 6.68108 
2.38045 1.46859 8.01231 
0.67683 -0.336016 5.59769 
1.39694 -1.01988 4.75806 
1.99591 -0.0779571 7.58171 
-0.615957 0.0407142 4.63913 
3.34865 1.8135 8.80447 
2.22466 0.78811 7.85937 
-0.628162 1.05296 4.38116 
-0.877166 0.242772 4.3167 
2.71317 -0.986181 8.28151 
0.232652 -0.153534 5.26105 
-0.704822 1.05588 4.29348 
-0.775071 -0.163043 4.46876 
-0.517238 0.995277 4.56769 
-0.593956 1.21942 4.29337 
-0.762214 0.729938 4.3461 
-0.431872 1.04014 4.64799 
-1.57773 -0.900926 4.17218 
2.1478 0.423659 7.77799 
0.154996 1.31227 5.23917 
1.89186 1.92417 7.19459 
1.56783 -0.197535 -0.712683 
2.03757 -0.0807193 7.62413 
2.06041 -0.94407 7.60462 
0.671833 -0.11052 5.77598 
-0.607152 0.715244 4.54326 
0.760833 1.21125 5.45 
0.104991 0.0243454 5.22249 
-0.701725 -1.04653 4.54769 
1.95143 -1.14587 5.3493 
0.156363 0.151727 5.2886 
1.97832 1.05012 7.55723 
-0.897867 -0.708255 4.34697 
1.00633 1.73913 6.06214 
0.316921 1.63233 5.14241 
-0.312128 -0.657239 4.82834 
0.679578 -0.138894 5.79447 
2.16093 -0.0822582 7.76516 
0.92834 -1.02474 4.52439 
1.65949 -0.797359 6.53158 
-0.101501 0.861798 5.10785 
2.44318 -0.528944 7.96442 
0.781947 -0.406098 5.73302 
-1.09034 -1.26669 3.97912 
-0.907627 0.104336 4.29123 
0.878305 -0.660397 5.68712 
-0.818205 -0.400168 4.43009 
1.64976 1.72699 6.99337 
0.156029 -0.718572 4.87643 
0.379552 0.895317 5.25812 
2.34055 2.29437 7.79178 
0.995312 -0.476121 6.07146 
-0.0603295 -0.566579 4.6379 
1.99591 -0.0779571 7.58171 
-0.394557 0.860876 4.7887 
-0.37426 1.25023 4.57797 
0.440694 -0.721429 5.19499 
0.701178 -0.750945 5.4816 
-1.00782 -0.0673188 4.18302 
-0.87218 -0.71673 4.37962 
0.174954 1.56066 5.03999 
-0.376364 0.980909 4.73966 
-0.764718 0.405868 4.42651 
1.56836 0.164476 7.11482 
1.45108 -0.953109 6.18812 
1.74099 1.23045 7.26677 
1.17533 0.00999855 6.43999 
1.16675 -1.22609 4.47576 
0.760833 1.21125 5.45 
0.554495 0.706272 5.38123 
1.00633 1.73913 6.06214 
-0.680995 -0.347582 4.57489 
0.609753 -0.831003 5.27284 
1.75247 -1.10445 5.13037 
-0.526519 -0.282863 4.76929 
-0.509449 -0.91358 4.79185 
0.109054 1.5701 4.93143 
2.4202 -1.12152 7.99691 
0.59314 0.67526 5.35691 
-1.02444 -1.26765 4.06996 
0.436015 -0.487477 5.3797 
-0.830265 0.897761 4.20413 
1.05791 1.66226 6.21176 
-0.60238 1.15325 4.35769 
-0.390863 1.33695 4.49514 
1.28877 0.253391 6.46171 
1.04615 0.705812 5.95807 
-0.792311 0.720373 4.32 
-0.45963 0.218026 4.80088 
-0.850038 0.769099 4.22768 
0.623111 -0.653461 5.40184 
2.05378 1.62373 7.56171 
-0.376364 0.980909 4.73966 
0.551865 -0.0366439 5.56725 
1.05791 1.66226 6.21176 
1.55769 0.784444 7.08182 
0.484113 -0.245226 5.50944 
-0.798099 -0.132159 4.44227 
2.76543 -0.783069 8.29793 
-0.497014 1.24482 4.42086 
0.487603 -0.621811 5.27453 
0.270061 0.676138 5.20447 
-0.79224 0.898962 4.24498 
-0.567729 -1.08673 4.72925 
-0.290763 0.681657 4.93008 
-0.574445 0.466009 4.63514 
-0.810314 -0.745667 4.45252 
2.10154 1.53341 7.64258 
0.757348 1.72401 5.58012 
1.90583 -0.273512 7.48011 
1.48707 -0.807366 6.34598 
1.90583 -0.273512 7.48011 
0.219192 -1.2144 4.88462 
1.575 0.486272 7.13137 
0.773262 -0.0497196 5.72797 
0.976276 -0.475013 6.04816 
-0.602917 -0.430494 4.70116 
-0.384223 -0.46734 4.92872 
-1.6715 -0.267685 4.21703 
-0.582666 -0.745783 4.71525 
1.19132 -0.795102 6.03718 
1.69016 0.320722 7.25963 
1.57826 -0.705856 6.56249 
-1.52523 0.0866917 4.21709 
-0.0187816 1.23452 5.06743 
1.73652 1.51494 7.18699 
-1.5463 -0.488291 4.24139 
-1.53363 -0.295643 4.24646 
1.5769 -1.14709 4.95449 
0.88097 -1.04534 4.51886 
0.564763 -0.152866 5.60754 
-1.56381 -0.155368 4.23747 
1.39943 -0.393977 6.68217 
2.773 -1.4492 5.32214 
-0.496909 0.2081 4.76229 
-0.956402 -1.00774 4.27169 
0.74554 0.793652 5.51706 
-0.185966 1.4447 4.66825 
-0.0866197 1.33442 4.90832 
-0.0794022 1.11091 5.06086 
2.71224 -0.985136 8.27448 
-0.447333 0.352147 4.81396 
-0.259134 1.46336 4.49662 
0.997286 -0.245875 6.12109 
-1.54149 -0.403791 4.24994 
1.50324 -0.852032 6.36144 
1.33601 1.40876 6.7225 
0.971072 0.100934 6.01763 
0.903118 1.10871 5.6076 
-0.428951 0.865612 4.71865 
0.73527 0.525112 5.74376 
-0.710759 -0.452121 4.54621 
1.96892 -0.673476 7.54564 
-0.500559 1.39954 4.23547 
0.0768714 1.17578 5.2166 
1.31771 1.65124 6.57771 
2.22474 -0.673882 7.80165 
-0.399207 0.871094 4.76393 
-0.132207 0.801796 5.08309 
-0.578901 0.443912 4.63927 
-0.879992 -0.615309 4.36038 
-0.228837 0.879821 4.9567 
-0.246016 1.46941 4.53714 
0.0344612 1.51899 4.88006 
0.924645 0.325014 5.95861 
3.23862 -1.68661 8.12777 
2.79626 -1.50773 5.94418 
1.18553 -0.662543 6.13462 
0.872875 1.73884 5.86337 
1.13993 0.413623 6.35707 
-0.59528 0.218098 4.65285 
-0.947479 0.0525218 4.25998 
-0.131133 0.325075 5.16191 
-0.165896 -1.29223 4.05435 
0.320486 1.45335 5.35171 
0.720726 -0.86686 5.39886 
2.71081 1.15511 8.3386 
1.27739 1.081 6.72642 
-0.0992063 0.846145 5.12728 
1.56937 -0.892582 6.44753 
0.298266 -0.19387 5.44683 
-0.936657 -0.442219 4.2916 
0.679349 -0.127595 5.78322 
-0.666079 0.35567 4.54997 
1.50198 0.654162 7.02109 
-0.323015 1.23365 4.6777 
-0.237905 1.46672 4.54802 
-0.231379 0.803822 4.96815 
-0.436177 1.08552 4.61052 
0.458314 -0.321538 5.47075 
1.54908 -0.235702 -0.476742 
-0.717738 1.3537 3.97896 
1.15038 1.0905 5.91232 
-0.287127 -5.05548 18.0906 
0.685018 -1.39257 5.22184 
-0.125824 1.45449 4.72564 
0.75676 0.503474 5.77318 
-1.28625 -1.33661 4.33414 
1.11867 -0.887007 5.84327 
1.56937 -0.892582 6.44753 
0.877798 -0.279432 5.67131 
0.383504 1.51903 5.39484 
1.66681 1.62892 7.04253 
1.08518 1.65094 6.27628 
0.239706 -0.724933 4.9714 
1.06486 1.45264 5.7914 
-0.942236 -0.213456 4.2623 
-0.873623 -0.734101 4.36593 
1.82947 -0.0522648 7.40114 
-0.761664 1.17825 4.12604 
2.04665 -0.63667 7.62287 
0.200437 0.187783 5.32961 
2.21214 -0.967337 7.77554 
1.96597 -0.776756 7.51004 
0.998037 -0.389151 6.07577 
-0.888554 -0.996516 4.3481 
-0.228603 1.37582 4.69315 
-0.27826 1.46542 4.47603 
-0.416447 -0.178516 4.88389 
-1.00473 -1.20471 4.09655 
0.383237 0.267704 5.46286 
0.472338 -0.329947 5.48417 
0.871816 0.226821 5.9262 
2.71251 -1.66178 8.17835 
-1.40263 0.670688 4.19731 
1.07446 1.19321 5.80913 
0.0135451 1.2695 5.08367 
2.76479 0.381512 10.9337 
1.69016 0.320722 7.25963 
0.523361 -1.10324 4.70826 
0.383237 0.267704 5.46286 
1.39056 -0.763768 6.24322 
0.709747 -0.282171 5.65825 
-0.231379 0.803822 4.96815 
-0.636952 -0.798154 4.64209 
1.24355 -0.983471 4.58968 
2.15885 1.35191 6.4923 
1.2155 -0.0852826 6.49878 
-0.2698 1.02499 4.85434 
0.472338 -0.329947 5.48417 
-0.736081 1.20647 4.13595 
1.70703 -1.28895 5.00154 
-0.88017 0.429926 4.27972 
1.39589 -1.06071 4.75509 
1.00638 1.74985 6.04201 
1.84775 2.03795 7.03006 
1.02046 0.776255 5.87632 
0.490671 0.815094 5.3793 
0.841349 -0.199286 5.70163 
2.72897 -0.799958 8.28674 
-0.468077 0.197548 4.81564 
1.86574 0.447706 7.45227 
0.777087 1.22528 5.48208 
-1.53436 -0.0788164 4.21421 
1.61436 -1.03214 4.98884 
1.0846 1.8016 6.11529 
2.03175 1.8051 7.4606 
1.72218 1.73178 7.07883 
-0.852849 3.47567 -10.5228 
0.807864 1.73337 5.7675 
-0.367682 1.36804 4.48997 
-1.29085 -3.32778 26.716 
0.528444 -0.330947 5.54726 
0.519311 0.62449 5.39669 
-0.554336 1.31423 4.2697 
-0.385737 -0.184359 4.91718 
0.496421 0.391423 5.42347 
1.87997 -0.134216 7.4244 
-0.472652 -1.10179 4.85971 
-0.41966 1.24087 4.52883 
1.46217 0.868319 6.99485 
0.612164 -0.506214 5.54648 
-0.0832239 1.51666 4.69369 
-0.00918212 1.46517 4.89702 
1.49626 0.856203 7.01086 
0.463273 -0.710472 5.21991 
0.227131 1.30853 5.33185 
0.194398 1.5591 5.07426 
0.227347 0.840072 5.03636 
1.31388 1.89948 6.30692 
0.840899 -0.222032 5.67939 
-1.01314 -1.16445 4.08022 
0.665206 1.3651 5.40352 
2.21698 -0.0875069 7.84037 
-0.780429 -0.149687 4.47601 
2.46133 -0.834849 8.17027 
0.773253 -0.313596 5.63175 
-0.934388 -0.168112 4.28534 
1.9907 0.419011 7.56884 
-0.398946 1.20437 4.5919 
1.01184 0.662502 5.92965 
0.531846 -0.249966 5.55271 
0.499115 0.166929 5.47689 
-0.420941 1.04754 4.65751 
0.94789 0.77021 4.57171 
1.39694 -1.01988 4.75806 
2.18375 1.18504 6.67682 
0.773096 -0.286686 5.63685 
0.0336225 1.39673 5.0138 
-0.530046 1.10304 4.47419 
-0.523329 -0.643961 4.77997 
0.858724 1.22255 5.58516 
0.256713 -0.784005 4.8891 
-0.171271 0.833951 5.0424 
-0.0919782 0.363192 5.0689 
-0.915733 0.0890478 4.2861 
0.699306 -0.038471 5.70956 
0.753547 1.7139 5.58967 
2.63613 6.69561 -23.6826 
1.43077 0.343182 6.9575 
-0.574143 1.05158 4.45979 
0.753226 0.248334 5.77437 
1.49959 0.79049 7.03149 
0.602553 0.790782 5.38962 
1.9579 -0.757104 7.51489 
1.93368 0.0946667 7.51284 
-0.208952 1.11115 4.88136 
0.559413 0.918965 5.33623 
0.825273 0.141289 5.87422 
-0.490669 0.985612 4.59075 
-0.751042 0.746439 4.36145 
-0.0677203 0.852386 5.16233 
-0.154723 1.45527 4.69094 
1.76215 0.876486 7.31107 
0.234576 1.31973 5.35034 
0.518691 -0.0179919 5.52808 
-0.676544 1.36239 4.0196 
-0.337941 0.35089 4.95431 
3.31847 1.85602 8.80296 
-0.582666 -0.745783 4.71525 
0.542373 -0.338628 5.56252 
-0.393967 0.0120831 4.90367 
1.24639 -1.20358 4.51082 
-0.489859 1.21079 4.47515 
-1.05748 -1.01752 4.16275 
0.563184 0.84692 5.32403 
0.592595 0.983407 5.37244 
-0.395375 1.11639 4.65304 
0.0523149 1.08011 5.22551 
1.50394 -0.720555 6.39824 
0.24033 -0.147932 5.27421 
0.980473 1.68031 6.09782 
-0.54774 -0.900398 4.75951 
-1.00293 -0.557548 4.22163 
0.434718 -0.616681 5.19707 
-0.583025 -0.579191 4.70967 
1.19601 1.88938 6.16594 
1.30384 -0.437118 6.57337 
1.56913 -1.07555 4.93612 
-0.575382 0.0194582 4.68502 
0.646421 0.462587 5.65031 
0.782966 -0.036143 5.73651 
-0.287127 -5.05548 18.0906 
1.01221 -0.791436 5.83107 
-0.576128 0.988634 4.46519 
-1.62939 0.00343606 4.24498 
-0.534977 0.693274 4.62884 
-0.257999 0.970261 4.87812 
-0.475016 1.15225 4.53258 
-0.111467 0.981955 5.05339 
1.29627 1.06528 6.75517 
-0.312128 -0.657239 4.82834 
-0.280264 0.787458 4.91473 
0.333777 -0.635587 5.08186 
-0.0713707 -0.297912 4.92047 
-0.42264 -0.816291 4.85995 
2.04387 -0.859751 7.59506 
0.795057 1.33084 5.6358 
0.940935 -1.13735 4.17971 
-0.540237 1.37275 4.20781 
0.698482 1.68553 5.53053 
3.11442 -1.59427 6.96508 
0.685842 0.504529 5.6913 
1.53649 0.490721 7.07454 
0.270061 0.676138 5.20447 
1.0896 0.700549 6.01571 
-5.48533 -0.583657 8.62868 
-3.7259 -19.5238 69.5448 
1.48707 -0.807366 6.34598 
-0.561486 0.221503 4.70374 
0.0895675 -0.602399 4.80622 
2.73561 -1.44923 8.24899 
0.726619 0.975516 5.53059 
0.658561 1.65423 5.55764 
1.98632 -0.764178 7.53006 
0.737766 0.532335 6.1798 
-0.0224171 -0.695983 4.69389 
1.50198 0.654162 7.02109 
1.25412 1.73058 6.43064 
1.4982 -0.19565 -0.675918 
0.554495 0.706272 5.38123 
-4.7368 -3.59301 27.6779 
0.66489 0.0223579 5.71332 
2.03175 1.8051 7.4606 
0.63644 0.714491 5.48527 
-0.567985 -1.10302 4.73625 
0.042972 1.31918 5.08575 
1.0896 0.700549 6.01571 
0.863201 -0.809006 5.16826 
1.43027 -1.06171 4.77599 
1.58537 -0.136485 -0.74319 
1.5369 1.83817 6.75695 
0.295859 -0.364191 5.44276 
1.03025 0.796356 5.87736 
2.69917 0.310891 8.34375 
0.856058 0.402746 5.92168 
-0.747561 -0.230475 4.49309 
1.75589 1.63004 7.16727 
2.19606 0.41889 7.84984 
3.32433 1.83777 8.80817 
-0.120927 1.01435 5.04732 
0.267954 1.46025 5.29668 
-0.500559 1.39954 4.23547 
1.73036 -0.856353 6.61021 
0.94789 0.77021 4.57171 
1.53849 0.330541 7.07711 
1.53649 0.490721 7.07454 
2.89793 -1.52931 8.31008 
0.807865 -0.283009 5.6391 
0.0964246 -0.518715 4.87488 
0.748558 -0.296985 5.63991 
2.17327 -0.827873 5.35863 
0.643126 1.68977 5.43492 
2.66927 1.67582 8.2685 
2.07737 0.599754 7.70177 
0.374962 1.49555 5.40663 
0.0997448 1.44839 5.05276 
-1.15927 1.31897 4.04567 
-0.514018 -0.730408 4.78287 
-0.618543 -0.134478 4.64696 
1.55088 0.402681 -2.70284 
0.638663 -0.336358 5.57584 
0.681621 -0.327046 5.61448 
0.709747 -0.282171 5.65825 
-0.0741956 0.152106 4.74953 
0.746924 -0.0539675 5.71622 
0.69997 -0.317032 5.62655 
-0.824211 -0.441173 19.1902 
-1.51534 -0.21594 4.25667 
-1.60852 -0.615102 4.30946 
0.648722 -0.307376 5.5824 
1.2836 -0.24136 6.57213 
1.67081 -1.32236 4.10997 
0.955936 -0.384354 6.02547 
-0.0386805 1.31885 4.97819 
1.62122 -1.37939 4.79568 
1.83313 -2.20864 9.75937 
0.591458 0.755795 5.38872 
-1.56456 -0.881803 4.17877 
0.164828 -1.09935 4.86061 
0.236314 0.359211 5.32847 
0.675602 0.466104 5.6756 
1.68578 0.12604 7.21028 
-0.487096 1.03631 4.57005 
0.505488 -0.419419 5.52063 
1.48645 -0.739077 6.35133 
0.805967 -0.0132192 5.77277 
0.261987 -1.22406 4.88138 
1.62473 -0.0324965 6.66733 
-0.844879 -0.148049 4.38232 
0.511 -0.305486 5.51891 
-0.890202 -0.834254 4.37492 
-1.48523 0.0122939 4.18122 
0.603142 1.33218 5.34447 
1.4982 -0.19565 -0.675918 
-5.40615 -4.15935 28.4491 
0.134125 1.37661 5.16836 
1.12716 1.77342 6.21205 
-0.347162 1.20674 4.66272 
0.0609329 -1.12634 4.7499 
0.152916 -0.10192 5.25898 
-0.78316 -0.254686 4.44635 
0.656518 -0.0978247 5.77916 
0.685018 -1.39257 5.22184 
0.964123 -0.169283 6.03158 
0.150848 1.1259 5.28983 
0.476712 1.29905 5.21124 
0.936799 0.78766 5.87534 
-0.695657 0.406009 4.52666 
-0.589115 0.383988 4.63367 
-0.57369 1.07806 4.43486 
1.34413 1.8142 6.51393 
0.322417 -1.24861 4.80799 
-0.598096 0.0257881 4.66332 
0.962981 -0.0761811 6.03127 
2.18341 1.4738 7.7283 
2.2209 -0.050714 7.83733 
-0.831546 -0.197361 4.39822 
0.926933 1.31963 5.53111 
-0.512137 0.681813 4.65575 
1.2958 -0.0475792 1.07594 
0.82496 -0.230257 5.66922 
-1.59279 -0.48011 4.3065 
0.688716 -0.642919 5.48247 
1.76215 0.876486 7.31107 
0.373154 1.47108 5.42339 
-0.62343 0.71006 4.51587 
0.301661 -0.207667 5.44392 
-0.690812 0.405468 4.5188 
-0.106036 -0.36098 4.83862 
-0.91993 0.37987 18.9234 
-1.53172 0.254111 4.26048 
1.26664 0.580534 6.36922 
0.566294 -1.28003 9.21109 
0.23607 -0.369215 5.38835 
2.00999 -0.789936 7.55478 
-0.593074 -0.461271 4.67871 
0.505742 0.952559 5.36276 
0.729456 1.67006 5.61351 
0.189283 -0.209398 5.33763 
-0.601914 -0.57723 4.698 
0.94185 -1.11619 4.5165 
-0.662593 -0.542598 4.62294 
2.84738 0.688753 -10.7125 
1.59993 1.4854 7.02719 
1.88774 -1.12019 5.28478 
-0.842797 0.415646 4.3396 
-0.537632 -0.668008 4.74454 
0.897991 1.20431 5.57936 
0.859162 1.22265 5.58295 
0.179661 -0.690132 4.90535 
1.64835 -0.775588 6.51542 
1.01663 0.826439 5.85042 
0.603142 1.33218 5.34447 
0.700021 -0.317089 5.62628 
0.691581 -0.122014 5.778 
0.693476 1.22386 5.3255 
0.458314 -0.321538 5.47075 
1.47907 1.80461 6.70543 
-0.602506 -0.167998 4.67655 
-1.15181 -1.28262 3.92793 
2.3327 0.909522 7.9726 
-1.62939 0.00343606 4.24498 
0.148809 -1.1001 4.84518 
0.76924 0.642271 5.77549 
1.25806 -0.805804 6.09223 
0.383129 1.45828 5.3794 
-0.896705 -0.830581 4.34638 
2.89711 -1.65425 8.26699 
0.654253 0.823642 5.45066 
0.728107 -0.12929 5.78473 
0.0552845 -0.59836 4.77434 
-10.5306 3.00784 18.2019 
-0.809854 0.961894 4.18557 
0.716317 1.22941 5.3474 
1.46746 -1.82465 6.68448 
0.537249 -0.029051 5.55089 
0.820045 0.844159 4.89343 
1.51754 -0.72422 3.42687 
1.98429 1.80108 7.3904 
1.07926 -1.17817 4.31479 
2.00147 2.05131 -7.18422 
0.726058 -0.225915 5.66815 
-1.57773 -0.900926 4.17218 
2.19802 0.0613357 7.81537 
0.767468 -0.235141 5.65376 
-0.787455 -0.664235 4.45399 
0.955518 -0.240824 6.06544 
1.74693 0.455481 7.32698 
2.06317 1.65447 7.59117 
1.9697 0.434264 7.5894 
0.529818 0.741227 5.39268 
0.936799 0.78766 5.87534 
0.88325 -0.253169 5.68002 
-0.348356 0.197677 4.9269 
-1.19393 1.36714 3.99823 
-0.895101 0.0789641 4.30458 
0.879273 1.31572 5.52364 
0.137275 -0.285188 5.28498 
-0.216935 -2.50531 9.30522 
1.2732 1.42005 6.6384 
1.28826 0.221824 1.24048 
-1.50704 -0.00246218 4.24586 
-0.140746 -0.660772 4.66231 
-0.692157 -0.561887 4.5726 
-0.61093 1.14494 4.34486 
-0.456528 1.29428 4.43691 
-0.380208 1.35171 4.49526 
0.665887 -0.298182 5.58833 
0.84384 -0.332514 5.6866 
1.20781 1.07038 6.08318 
0.798878 0.488654 5.82467 
1.73959 0.14273 7.31374 
0.546755 0.657347 5.37588 
1.13964 -0.167235 6.38221 
1.81758 -0.597014 7.37194 
1.04837 1.6534 6.22726 
1.45039 -0.721146 6.33117 
0.306749 0.828038 5.05025 
0.889809 -0.681415 5.68476 
-0.761944 -1.09707 4.49606 
-0.241369 -0.612641 4.76487 
0.786674 0.264554 5.81353 
0.693906 0.481219 5.70298 
-1.19136 -1.12104 3.90979 
-0.051243 -0.644762 4.65999 
1.49441 -0.175855 -0.720498 
0.0437885 1.55836 4.8328 
-1.18636 1.3215 4.04898 
1.20197 0.893997 6.21409 
1.05593 0.716674 5.94037 
0.211785 -0.0636427 5.31994 
1.64204 -0.791422 6.52462 
3.76157 3.79777 -26.2516 
-0.581291 1.01969 4.46538 
1.43989 -0.324654 -0.499872 
1.55269 -0.673517 6.53924 
-0.542674 0.207925 4.73485 
-0.623135 -0.271323 4.65847 
0.969213 -0.75855 2.97279 
-0.0147737 0.0987372 4.78359 
0.1369 1.20561 5.27526 
0.710733 -0.127693 5.78274 
1.48707 -0.807366 6.34598 
0.609753 -0.831003 5.27284 
0.638238 0.753982 5.4452 
1.93195 0.7659 7.52444 
1.58869 -0.283933 -0.719193 
-0.303926 1.32882 4.60272 
2.72492 -1.19211 8.20833 
1.07294 1.43042 5.81548 
-0.620659 1.0397 4.40143 
1.97569 1.81443 7.36812 
-0.604557 -0.237098 4.67046 
2.7288 -1.5471 8.24131 
-0.0393007 -0.559572 4.66086 
0.273058 0.828125 5.04014 
2.67205 -1.67015 7.81135 
1.90248 -1.13458 5.29934 
0.298266 -0.19387 5.44683 
2.81934 -0.103382 9.02163 
2.00094 0.195105 -1.38132 
-1.31715 0.919037 4.21338 
-0.527291 -0.913831 4.77345 
0.800266 -0.00279591 5.75804 
2.05464 0.952253 7.63721 
-0.486656 0.00619837 4.78175 
-0.282815 1.20228 4.78428 
1.5755 -0.0271815 -1.14933 
1.62975 -0.77464 6.51522 
0.021758 0.105158 4.96387 
1.5683 -0.229197 -0.664808 
-0.493648 -0.506086 4.80308 
0.685154 -0.301389 5.60918 
2.00973 -0.74768 7.55906 
1.87929 -0.647563 7.43637 
0.417433 0.833739 5.36064 
0.200437 0.187783 5.32961 
-1.37026 0.889627 4.16694 
0.706196 1.66773 5.587 
2.18341 1.4738 7.7283 
1.09953 -0.222864 6.34452 
3.54815 1.98738 8.8026 
0.236664 0.0300589 5.38158 
0.0163708 1.10468 5.16063 
-0.549004 -1.33626 4.57461 
0.815029 0.0131192 5.76431 
0.849347 0.649505 5.86164 
0.608119 -0.665493 5.38427 
0.0359142 1.55179 4.82811 
2.74316 -0.452717 8.31295 
-1.48458 0.233714 4.21311 
-0.680789 -0.546782 4.56264 
0.0389013 -0.527852 4.87506 
-0.74008 0.0403473 3.80178 
1.63705 -0.474368 2.22746 
3.45634 2.39209 9.31087 
1.73448 -0.189683 -0.946115 
0.793083 0.700789 5.73201 
-0.727886 -1.05256 4.5363 
0.239706 -0.724933 4.9714 
-0.601914 -0.57723 4.698 
0.467304 -0.0206046 5.47382 
0.829013 -0.173484 5.77168 
0.591727 -0.664972 5.36706 
1.59646 -1.38503 4.75189 
-1.21056 1.2785 4.05318 
1.5755 -0.0271815 -1.14933 
2.65638 -1.63627 7.37792 
0.983831 0.535782 5.9776 
0.951467 0.281905 5.89495 
1.35556 -0.742886 6.2288 
-1.43654 -1.15386 4.05482 
0.750757 0.460327 5.41893 
-1.35794 -1.12642 4.0812 
1.86574 0.447706 7.45227 
0.580346 0.745223 5.42182 
0.955936 -0.384354 6.02547 
-1.55845 -0.608133 4.24694 
1.27581 -0.30835 6.53653 
-0.0347025 0.855041 5.19074 
-0.706354 0.869136 4.36151 
0.678705 0.850407 5.46169 
1.11902 -0.0746931 6.3927 
0.57386 -0.66169 5.35374 
-0.604517 0.900703 4.48236 
1.75619 1.88474 7.02579 
1.39909 -0.714122 6.2257 
1.69029 -0.724291 6.7335 
0.445805 -0.594617 5.31009 
0.90817 1.32958 5.47899 
0.621516 0.394056 5.6169 
0.273548 -1.23024 4.85436 
-0.595146 -0.360891 4.67067 
0.615003 0.823391 5.38537 
1.66216 -0.093192 6.67477 
1.80629 -2.19428 9.67022 
1.27659 -0.119455 1.11449 
0.440953 1.66723 5.27399 
0.757047 0.987438 5.57401 
2.29145 1.98642 -6.88076 
3.97421 -0.130246 -4.72513 
1.65388 -0.0989244 -0.926245 
0.705224 0.29412 5.72921 
1.1789 1.81484 6.24897 
1.02186 1.79598 6.01571 
0.0344612 1.51899 4.88006 
1.25295 -0.835536 4.57745 
-1.64634 -0.0234659 4.42679 
1.48773 -0.709177 6.59775 
-1.09215 1.25368 3.97682 
-0.0550592 1.51769 4.74194 
0.483074 -0.990667 4.74611 
0.705551 1.70382 5.50795 
-0.874014 0.414939 4.2945 
-1.59474 -0.0556964 4.31893 
0.387826 -1.31367 4.21946 
1.97133 1.83142 -6.40148 
1.10949 -0.120053 2.68165 
1.94196 -0.067977 7.53154 
-0.737647 -1.52414 19.4841 
-0.561589 1.05065 4.47 
1.59752 -0.331152 -0.742841 
-1.61227 0.141302 4.24842 
1.57009 -0.279831 6.75755 
-0.027399 -0.824951 4.60239 
0.50579 0.699691 5.4223 
0.563184 0.84692 5.32403 
-1.09576 1.16932 3.97257 
1.50488 1.52387 6.88949 
1.7281 -0.136101 -1.48911 
3.21917 -1.69753 8.08515 
0.941127 -0.387596 6.0116 
-0.828197 -0.117919 19.1899 
1.18553 -0.662543 6.13462 
-0.231549 1.35402 4.70918 
0.562394 0.151041 5.54017 
-11.0543 0.697467 16.4941 
0.58296 -0.488693 3.65926 
0.950036 -0.972246 4.52797 
0.587778 -0.682697 5.37291 
0.243773 -1.21758 4.91789 
1.98632 -0.764178 7.53006 
1.54828 -0.724612 6.42623 
-0.498374 0.691417 4.68218 
-0.0360296 -0.662491 4.6703 
0.770893 1.48248 5.40637 
0.879763 -0.73427 4.62251 
0.483074 -0.990667 4.74611 
0.856058 0.402746 5.92168 
0.305042 -1.21418 4.86776 
2.05243 1.79303 7.4932 
0.228983 -1.22797 4.86495 
-0.494934 -1.0426 4.79809 
0.580346 0.745223 5.42182 
2.06961 -0.962775 7.63558 
0.810252 0.152506 5.86406 
2.26846 -0.981871 7.83043 
1.37429 1.06758 6.84764 
-0.252464 -3.66867 26.0591 
0.727732 1.65202 5.73636 
-0.086278 -1.17916 4.4999 
0.773709 -0.286628 5.63351 
-1.55902 -0.844884 4.19642 
-0.0422424 0.826991 5.19084 
1.87929 -0.647563 7.43637 
-1.58077 -0.912192 4.22512 
-0.559577 -0.44372 4.73269 
0.25341 -0.699145 4.9922 
0.64823 -0.960263 4.59618 
0.795924 1.27085 6.27846 
0.716317 1.22941 5.3474 
1.6579 -0.819307 6.54949 
-1.41186 0.649024 4.19792 
-1.22502 1.33827 4.0095 
0.0926148 -1.1316 4.77971 
0.798794 -0.192015 5.75371 
0.767819 1.7029 5.64638 
1.44604 0.0437616 1.75949 
1.92872 -0.472036 -1.36882 
4.45306 3.12709 -23.9878 
0.780827 1.71241 5.66113 
0.223565 1.16349 5.43167 
0.294438 0.81968 5.0553 
0.135589 -1.0658 4.82629 
2.31585 0.906081 7.97499 
1.48747 -0.636677 6.67055 
0.996951 -0.236586 6.09342 
0.497886 0.793542 5.38344 
0.887722 0.166962 2.48772 
0.964541 0.122644 6.00265 
-1.49123 0.0443793 4.23503 
1.57652 -0.269297 -0.736721 
1.98308 1.63267 7.49965 
-1.43427 -1.09116 4.13413 
3.39878 3.72443 -13.0092 
1.84063 -0.474383 7.39726 
0.232535 0.664366 5.08546 
-0.113178 -0.167019 4.81992 
-0.389904 -0.520679 4.9111 
-1.81134 -0.593268 4.53797 
0.262558 -1.29787 4.80348 
-1.44739 0.517072 4.22712 
0.708606 1.37988 5.45464 
0.344691 -1.21477 4.85883 
0.533356 -0.117137 5.54842 
-1.41604 -0.263775 4.09503 
0.343605 1.16579 4.96406 
-0.643556 -0.330656 4.62151 
-1.03551 -0.821379 4.1869 
-2.18765 1.45105 4.61659 
-1.58037 -0.917529 4.17312 
1.01419 0.738666 5.92792 
-0.12423 -1.31085 4.51549 
0.575538 0.931886 5.31154 
-1.56768 -0.816245 4.23605 
1.64649 -0.80945 3.32048 
1.25295 -0.835536 4.57745 
-0.689353 0.00785332 4.55239 
2.11113 0.284705 -1.4497 
2.80725 -1.54623 8.20534 
-0.00285461 -0.354746 5.12351 
0.978282 -0.233384 6.09772 
1.05085 0.802721 5.92199 
0.3281 -0.655143 5.08993 
1.07901 -0.889365 5.8013 
0.657711 0.781025 5.44931 
0.875193 0.347477 5.9562 
-1.44215 -1.07052 4.15416 
1.04661 1.4655 5.76415 
1.28702 0.227816 1.2435 
1.00189 -0.170394 6.07792 
2.03158 -0.771142 7.58429 
-1.38037 -0.582301 4.24677 
1.77345 2.07994 6.89429 
1.00242 -0.092312 3.56686 
-0.829455 -2.58872 13.0088 
0.575538 0.931886 5.31154 
-0.470824 -1.01297 4.83724 
1.66388 -0.062498 6.67612 
-3.13162 2.08727 8.36643 
1.84979 0.430707 7.43086 
0.181594 0.379445 5.18321 
0.667586 0.570293 6.58326 
0.409286 -0.716945 5.17072 
0.552666 1.1654 6.40783 
0.663986 1.68229 5.48537 
1.15258 -0.328633 6.416 
0.558694 1.27154 5.28879 
0.705564 1.72168 5.48766 
1.56271 -0.172613 6.69991 
0.204601 -1.32454 4.82234 
1.38616 0.0372689 1.55598 
2.39988 1.71054 7.90568 
0.166725 0.0368777 5.30683 
-1.40041 0.656565 4.22229 
-0.530388 -0.991728 4.7587 
0.355005 1.00509 5.27798 
0.339172 0.797536 5.23 
0.580003 -0.00561335 5.5803 
-3.12632 -3.81131 26.4075 
0.110723 -0.585621 4.79903 
0.606413 0.834004 5.38707 
-0.900257 0.0565908 4.30944 
1.72504 -1.3742 6.55214 
-2.43582 2.44268 7.45795 
0.817742 0.0263552 5.76718 
0.951906 -0.674412 4.27033 
-0.193511 -0.0399227 4.85492 
0.858791 0.0172378 5.83127 
-0.0284939 0.125677 4.76 
-1.50479 -0.00526908 4.20206 
1.56271 -0.172613 6.69991 
-0.768158 0.0228886 4.45122 
1.98308 1.63267 7.49965 
-1.56603 -0.928378 4.15552 
0.767404 1.73865 5.56865 
1.55629 1.80798 6.81915 
0.508749 -0.321623 5.52945 
0.0272492 -0.286553 5.18825 
0.636039 -0.318706 5.58169 
-1.19931 1.287 4.07963 
-1.04095 -0.82 4.18543 
-0.828197 -0.117919 19.1899 
0.497255 0.776308 5.40758 
-0.167532 -0.692999 4.68594 
1.08714 0.759044 5.93727 
1.02283 1.13147 5.48146 
-0.356003 0.513186 4.88726 
0.0220751 -1.05578 4.70738 
-3.31964 -1.48084 8.77097 
0.499115 0.166929 5.47689 
0.781432 0.273436 5.78568 
-1.54777 0.363969 4.25888 
-0.105174 0.846331 2.71636 
-0.624099 -0.779816 4.66343 
1.31013 -0.377512 6.54817 
-1.04095 -0.82 4.18543 
-0.210883 0.0777722 3.11302 
1.97947 0.00489154 -1.29488 
0.767392 0.256454 1.65518 
1.25189 -0.836876 4.58686 
0.576977 0.111775 5.58956 
-0.829455 -2.58872 13.0088 
0.243773 -1.21758 4.91789 
0.728989 -0.0179798 5.74137 
0.922972 0.263692 5.88097 
-0.348356 0.197677 4.9269 
0.312768 -1.01371 4.90255 
0.757792 -0.0387253 5.72643 
0.505496 -1.06455 4.72049 
-1.28687 1.25012 4.20058 
1.02846 0.682277 5.92644 
0.67438 -0.290024 5.60906 
-1.57785 -0.261182 4.27332 
2.00973 -0.74768 7.55906 
0.359648 -0.576107 5.36549 
1.01929 1.44335 5.77089 
0.169162 -0.074914 5.27604 
0.234489 -0.113754 5.26952 
0.666156 1.68784 5.47222 
1.36747 0.713791 6.34468 
-1.36257 0.770421 4.19442 
0.600825 0.827324 5.35002 
1.53671 -0.101695 -0.630329 
0.711737 -0.105139 5.80561 
1.29053 0.179515 1.20033 
0.5103 -1.1313 4.7139 
-0.730975 1.35015 3.94714 
0.858528 0.423669 5.21108 
0.718587 -0.770905 4.39422 
2.65855 1.69154 8.25438 
-1.47364 -0.215314 4.18018 
-5.01227 0.560727 11.4833 
1.81558 -0.722529 7.37974 
-1.18091 1.30713 4.10386 
-0.166648 0.361925 2.99798 
1.28199 -0.0818005 1.09356 
2.8095 -1.68036 8.03867 
0.637935 0.493595 5.97173 
1.80629 -2.19428 9.67022 
-1.53076 -0.260935 4.24658 
1.28412 0.313963 6.38968 
2.65638 -1.63627 7.37792 
0.553167 0.835102 5.32458 
-0.489552 -1.18923 8.33978 
0.630204 1.69848 5.38446 
1.54817 -0.149342 -0.631475 
1.29129 0.897067 6.23886 
-0.894994 -1.08213 4.34396 
3.72718 0.0849355 -4.16929 
0.298357 -0.617804 5.07373 
-0.592433 -0.280388 4.67691 
1.29406 -0.0514849 1.22623 
0.85507 0.0332958 5.88502 
0.704519 -0.0215441 5.64283 
2.42167 0.423818 5.34926 
0.477903 0.0308572 2.50885 
1.57889 -0.171593 -0.686374 
1.10163 -0.404123 6.37421 
-1.14117 1.3531 4.03446 
0.930039 1.31015 5.58632 
2.06317 1.65447 7.59117 
-0.0196667 -0.557848 4.70408 
1.69341 -0.0262841 -0.815896 
1.79259 -1.16616 5.17326 
-1.18442 1.18119 4.1433 
0.979163 1.21576 5.72918 
-4.93395 1.15484 11.0461 
0.326124 1.64392 5.14859 
0.528302 0.579437 5.41939 
-0.802171 0.986477 4.18633 
0.685733 0.0220966 5.72978 
1.32923 -0.409696 6.53158 
2.17573 -0.0516899 7.78533 
-0.131133 0.325075 5.16191 
-0.423572 -1.1589 4.86833 
-0.2918 1.46406 4.45696 
3.64443 2.09617 8.9904 
0.308315 -0.214516 5.46821 
-0.643627 0.477684 18.8196 
1.17293 -0.172263 6.43073 
1.27339 -0.090769 1.10205 
1.29021 1.15825 5.99929 
1.0902 0.779567 5.95594 
-1.32739 0.326095 4.19072 
-0.307601 1.3389 4.60325 
1.28421 0.171329 1.16411 
0.574039 0.834416 5.31923 
-1.80525 1.31357 5.80975 
0.170649 0.125689 5.30466 
0.530862 -0.185376 5.54387 
-1.53956 -0.360914 4.24901 
1.72504 -1.3742 6.55214 
0.666901 -0.903719 4.57705 
0.418868 -0.62659 5.17935 
1.81558 -0.722529 7.37974 
1.59032 1.65271 6.97358 
-0.5317 -0.757666 4.76957 
1.95108 -0.238751 -1.26002 
2.17897 -2.26025 8.65794 
-1.65732 0.409781 4.18617 
1.60043 -0.26832 -0.740763 
-5.01227 0.560727 11.4833 
0.916908 1.796 5.87775 
1.01792 0.809705 5.87303 
1.09433 -0.268224 6.34424 
2.57285 -1.66267 7.9323 
2.16368 0.697506 -2.13407 
1.13433 0.723682 2.53414 
-0.534977 0.693274 4.62884 
0.528302 0.579437 5.41939 
1.61225 0.267006 -1.11303 
1.5102 -0.512388 -2.51899 
1.06562 0.750868 5.95991 
-1.18836 1.24505 4.07524 
-0.252718 -0.325332 3.63247 
0.609371 -0.335417 5.60052 
1.19912 0.212302 1.37745 
-1.38868 0.768992 4.18128 
3.59835 0.15065 -3.8782 
0.217368 0.442272 5.21316 
-1.28616 1.11667 4.12511 
0.16471 1.20378 5.26419 
-0.662257 -1.08125 4.63645 
0.912939 0.672532 5.93638 
1.66693 -0.547043 -1.63555 
1.39056 -0.763768 6.24322 
0.236969 0.770741 5.13922 
1.33824 0.212971 1.25178 
0.801512 0.26412 5.83495 
-1.44897 -0.339849 4.13131 
1.63043 -0.500322 -1.91695 
0.629075 -0.0994336 5.71737 
1.1949 -0.2366 6.36084 
1.78344 0.514658 -3.14146 
1.16159 -0.193333 2.35955 
-0.0398429 -0.979011 4.63069 
0.7243 1.72515 5.51999 
3.61533 0.37406 -3.8797 
-1.29192 1.15767 4.11044 
0.992808 -0.773325 5.80446 
-0.13828 -0.0479705 4.82434 
-1.49695 1.47877 4.46948 
1.56624 -0.143869 -0.660981 
-1.29265 0.895956 4.35153 
1.9651 -0.947759 7.5199 
2.08979 -0.447436 -1.52218 
0.903098 -0.0729078 1.49967 
-1.45038 -0.395482 4.39183 
-1.45555 0.465487 4.24363 
0.783734 -0.357807 2.97136 
1.84778 -0.0720883 -1.32962 
1.63043 -0.500322 -1.91695 
-0.62944 -1.11659 4.64734 
1.74087 -0.39125 7.22211 
-1.77828 -0.583477 4.49783 
0.829603 1.24024 5.53653 
1.62889 -0.00336249 -0.795907 
1.70425 -0.0507894 -1.43313 
1.96215 -0.614869 7.55494 
1.33658 1.11716 6.21271 
-28.0184 2.77029 54.2173 
3.52083 2.39598 8.67381 
1.32362 0.0389886 1.3945 
0.787623 0.590419 5.83804 
1.2619 0.0703013 1.14805 
-85.7247 -8.53971 175.013 
